# 3D point list with one line of data per point:
#   POINT3D_ID, X, Y, Z, R, G, B, ERROR, TRACK[] as (IMAGE_ID, POINT2D_IDX)
# Number of points: 397, mean track length: 5.1232264334305153
4574 0.41148752124123278 1.3674291391718436 2.0890630179661751 12 10 12 0.11786664597581498 79 500 13 748 49 826 3 660
4575 0.77079005452642368 1.3881193466391026 2.0494470483667073 110 88 24 0.18026119574149865 83 766 13 750 49 526
4576 0.70653036187342255 1.3767780336550146 2.0955092453658368 112 90 25 0.12964746504499058 91 826 13 751 50 369
4577 1.5443536962382769 1.2200356549200475 2.7693813558634996 114 81 68 0.25277846281351662 83 584 13 758 49 1041
4578 0.78783785989661903 1.5458820853625761 2.356721441631338 58 59 71 0.073768346628822132 79 513 13 764 49 857
4579 0.81599809023090464 1.6317915618928132 2.5961996004273629 234 209 161 0.30278293098707193 79 540 91 1093 13 790 49 872 3 484
4581 0.71536533396975377 1.4627148709601552 2.2252790667829769 112 91 23 0.44318758835365057 91 1072 13 905 49 1031 3 787
4582 0.70034158315828776 1.491700213158982 2.2860011679183039 113 92 23 0.2489025224612513 79 657 13 906 49 1034 3 788
4583 -0.26651450579951902 1.4190592971788716 2.6108800559646084 57 64 86 0.15082947036800098 79 743 13 911 49 842 27 607 50 497 67 521
4584 -0.1774939240753739 0.5560365834302391 2.0336959342777137 250 2 0 0.64502778444955056 79 698 13 944 19 840
4585 -0.65740412696821193 1.0595770697390088 2.502212004354448 0 0 0 0.88352235877701457 79 731 13 968 49 1018 3 837 27 584 50 558
4586 -0.32710401884748957 1.1577375487036108 2.4762039734063146 98 88 25 0.90931670709175116 79 732 13 972 3 840 27 636 85 585
4587 0.09643261524057474 1.2484543012517537 2.4218137679309382 8 3 1 0.39673476312734685 79 651 13 974 49 1027 3 842 67 510 50 483
4588 -0.60495593920259116 1.1469634705415708 2.6235527632655469 56 59 75 1.4056188258036366 18 970 13 975 49 1026 3 785 67 585 50 564
4589 -0.098816793450272694 1.8077884807531466 2.8751059220289492 0 0 0 0.79001559651584452 30 845 13 986
4590 0.037487961527697108 1.3096283326345313 2.4547015078662242 107 74 14 0.72497107562177987 79 736 13 1013 49 1181 3 910 27 591 50 607 67 635 85 531
4591 0.17158965893588851 1.5412382309999506 2.4164954259495222 75 60 15 0.081284920869113916 79 788 13 1015
4593 0.2174856623932663 0.94323120787862769 1.9109992678824996 236 220 166 0.47090591394041653 9 90 3 929
4594 0.29745593434736345 1.6287682541411068 2.2838141435684198 45 50 68 0.16065394403542066 79 820 13 1045 49 1184
4595 0.59278085777786271 2.1532901444358181 2.2551219436428371 53 36 30 0.64955252676865538 79 822 13 1049 3 944 67 675
4596 -0.6893482557034365 1.2541462687225051 2.6769725402399049 0 0 0 1.3325567173732242 13 1069 49 1244 3 977 50 668 67 701
4597 -0.72405753883898794 1.4997206603078364 2.7448036565760576 126 130 122 1.5533764996110631 18 1252 79 862 13 1070 49 1245 70 878 27 701 23 1184
4598 -0.70854293967990922 1.4640954350276312 2.8011000399995916 126 130 122 2.6246142718186127 79 863 13 1071 3 981 27 702 50 671 67 704
4599 0.57938151007179961 1.92408550448861 2.4109446274553772 208 191 153 1.0541881563085542 98 1288 49 1246 13 1073 3 964
4600 0.583554455367152 1.9215894662128201 2.4218201335191525 208 191 153 0.80869599192773733 98 1289 49 1247 13 1074
4601 1.2704841414414927 1.2850331806757702 1.477540638735575 255 233 65 1.5349180538949352 91 1321 13 1081
4602 -0.1099625624950176 0.68206716356219754 2.28754398642312 65 70 90 0.3867822467979779 91 1327 13 1088
4603 -0.1099625624950176 0.68206716356219754 2.28754398642312 65 70 90 0.3867822467979779 91 1328 13 1089
4604 1.4362513435343502 1.8859361071455769 2.4466267669571513 104 96 75 1.8411634069352043 79 868 3 994 27 712
4605 -0.94693714749167957 1.5507926293658187 2.8244919651681935 73 74 70 0.95154769401954875 9 1418 46 1207 83 1167 98 1111 30 850 90 532 64 1090 53 970 79 755 5 840 54 1111 88 905 13 558 9 916 91 729 3 812 27 619 50 516 67 538 85 603
4606 -0.15676570916262472 1.4067793193283222 2.5339741577405084 79 64 15 0.82773249362970536 30 825 36 788 79 787 83 1194 77 747 13 908 83 825 98 849 90 510 3 847 27 642 50 611 67 638 85 590
4607 1.4050064514324592 0.75475701823012598 1.6488384153276681 145 145 43 0.86083204138711478 9 954 13 848 40 1090 24 1108 15 941 93 1006 23 1034
4608 -0.074339727992999746 0.82623148622663445 1.9022252766517336 255 242 71 0.15803886244223761 13 433 49 17 3 12
4609 -0.034971445587331229 0.95376319888280492 2.0193633704816052 95 71 13 0.12564009811314078 13 41 18 49 49 55
4610 -0.41804503871261178 0.92587314413883104 2.3218909831399164 79 55 7 0.25053302190791682 13 57 49 72 3 54
4611 -0.36496709479981609 0.90068451578397057 2.4326595457779394 175 139 43 0.73366049029773395 18 61 49 79 23 157
4612 0.42511697840636203 1.4881899422287357 2.1297869538021845 89 88 97 0.27422193162511194 13 106 49 120 3 85
4613 0.787779836563546 1.4152677463975436 2.2155196037148448 3 2 2 0.26196859249561938 13 107 49 125 3 88
4614 -0.54027957462113185 1.4874382628443843 2.7483526775976226 94 102 102 0.32472039453454349 13 183 49 164
4615 1.3352036762112567 1.3025746259234454 2.8216443964441793 226 211 175 0.032948329399446905 9 210 49 180
4616 1.5914483753454929 1.3094871280847231 2.7606305411714493 53 28 19 0.28746482913470733 13 140 18 214 49 182 3 149 23 578 75 434 89 202
4618 0.33179350832888699 1.7005352664915323 2.4006241567012143 29 33 48 0.1931672086574876 13 202 49 212 3 143
4619 1.732010097556629 1.3987252553532805 2.719888140056745 57 33 20 0.24111158896455573 13 163 83 93 49 213
4620 0.39538234971727992 1.7339162044839325 2.3746562487621663 31 33 45 0.10864091448019535 9 517 13 216 49 219 3 153
4621 0.4282780055831778 1.7623805209189252 2.4012832266738822 60 68 90 0.20768541275654256 79 389 49 233 3 469 50 272
4622 1.975356029694358 1.4858265052554436 2.655566754649731 77 47 31 0.36020747813400916 18 596 49 235 3 225 23 608 99 221 75 461 89 428
4623 3.8417611217697294 -4.0431554700505234 14.182034455607589 126 117 97 2.3861746308046645 13 295 49 264
4624 1.0463429238061321 1.7752507229313155 2.5066651407938738 106 95 75 0.10400107298923933 13 253 18 246 49 269
4626 -0.38604706969405839 0.919283215707004 2.4184634059167109 127 72 5 0.29807631945164054 13 65 18 406 49 501
4627 0.056262600971252991 1.1437527968211905 2.1990302717090509 115 87 35 0.10320534484659419 79 48 49 509
4628 0.22901769125511467 1.1640486599653159 2.2643057973453384 71 36 2 0.15608817467653227 13 477 49 513 3 393
4629 0.58692684922267369 1.246791184010031 2.1545990985914698 63 24 0 0.31611337209288259 13 478 49 519 3 389
4630 0.73556062553069013 1.370779433034653 2.0673875903783934 27 29 38 0.17759686114901743 13 483 18 458 49 525 3 396 50 363 67 390
4631 -0.54760872494320334 1.3330493376654839 2.6957670663019675 2 1 3 0.088765622993917853 13 514 49 539 50 410 67 433
4632 0.64969087609479581 1.5146636756038971 2.3856773832417417 67 38 4 0.073891674682222033 13 516 49 551 3 436
4633 0.14076558636037675 1.5403786961607868 2.4726855221847663 60 39 4 0.058333847304293224 13 528 49 555
4634 0.36091824672890266 1.6761691849331433 2.3269783676164022 56 67 93 0.30014318132791795 13 538 49 563 3 445
4635 0.75432920826049288 1.5562376397235353 2.6433328692405302 89 68 47 0.24051457278802624 13 550 49 576 3 200
4636 0.61901826982337871 1.6926162512295626 2.6070135064618958 186 167 127 0.099567973557197681 13 586 18 542 49 610 23 550
4637 0.58269160405373299 1.7384128203179638 2.5793321932378492 206 185 143 0.1500890182737713 13 601 49 627 3 505
4638 1.2681169252015463 1.9418367992571126 2.3809977912714198 131 116 88 0.1725210474274558 13 655 49 696 3 545
4639 1.3184821469294759 2.4998747640035797 2.0127633468715462 35 23 20 0.33291565629749592 13 700 18 376 49 765 3 738 23 381
4640 0.52675069227598936 1.1247273208007282 1.6071989533986284 27 28 38 0.13577773214895214 13 715 49 789 3 609
4641 -0.058100127756612732 0.97206589882692385 1.9886465185604956 196 194 209 0.24498275816197479 13 450 18 665 49 792 3 627 67 26
4642 -0.089741223411319307 1.1688898996683001 2.2472363658306067 65 67 83 0.44544897081630791 13 475 49 819 3 74
4643 0.95852607624025654 1.209982119626168 2.1257261205143361 167 165 168 0.3162153229517376 13 884 79 483 49 822 3 773
4644 0.90756400029327478 1.2445861154946003 2.0976384619703188 21 14 2 0.27758084077622397 13 743 49 823 3 388
4645 0.42797743302295654 1.463015293609901 2.0958941207939228 92 92 106 0.19931487705386405 13 490 49 829 3 402
4646 0.82644155338451986 1.4334714612335717 2.2052138182966035 14 15 18 0.22688353020895025 13 495 18 463 49 832 3 669 23 675
4647 -0.5101567889947064 1.3218221391599279 2.6566982713623135 48 53 72 0.18336614325013284 13 907 49 834 50 572 67 592
4648 1.163019197344743 1.0710801163362256 2.9626166594154948 113 79 64 1.3637780450722556 18 993 49 843 23 680 42 481 75 839
4649 1.5128981627686056 1.3109346652155194 2.7448227929900448 149 98 69 0.20797486773643017 13 138 49 861 3 459
4650 1.0835366830940107 1.8664663662854351 2.4415682474031346 126 114 88 0.30575614165550086 13 800 49 906 3 710
4651 1.3002304432496439 2.3900184688736843 2.0950064628192124 231 217 184 0.17259364708996744 18 1149 23 1093
4652 -0.33524866660622582 0.69987953455056229 2.117419628911112 150 89 20 0.31118066934928534 13 858 49 986 3 826
4653 1.5083454047545148 0.87705279621888599 1.7300832135878452 239 230 78 0.96974957800874428 13 430 49 987 3 748
4654 -0.012094810542318219 0.82821921672819954 1.9510964481499413 151 105 19 0.17729937580280905 13 856 49 988 3 754 50 455 67 485
4655 0.56734642659587209 1.1303732482501041 1.6077678095160641 109 89 20 0.23021172516602098 13 854 49 991 3 611
4656 -0.3821835696028989 0.89418465260837654 2.2518301714017039 12 10 13 0.30170422673492103 13 729 49 1002 3 639
4657 -0.58449841907480526 0.98825409132328967 2.3900497328018622 0 0 0 1.0801120638469102 13 738 49 1010 3 833 50 554 27 574
4658 0.52938763563350799 1.3123448262041217 2.0790889667251808 107 87 24 0.54852507551310914 13 886 49 1023 3 835
4659 0.904086088975254 1.4724731778455515 2.4610460432505348 255 221 55 0.45871054253505461 13 763 18 1006 49 1042
4660 1.7275724784177011 1.2437458613755175 2.8015010924985231 0 0 0 2.0837293893613746 79 510 49 1045 23 1077
4661 -0.51019513705204667 1.5193959427970385 2.7770638257256883 79 89 92 0.63817450699378975 13 785 79 685 49 1047
4662 0.094602428759527318 2.1407431347212627 2.0546891298638612 87 86 81 0.15062936718050796 51 612 49 1067
4663 0.18448500613224286 0.5051935163351694 2.1630766316509553 0 0 0 1.1500487943782403 13 947 18 1154 49 1100
4665 -0.37933101051146417 0.71664997937727959 2.0148744273063914 88 50 4 0.3998511489719665 13 994 79 811 49 1102 3 824
4666 0.55032198818283962 1.067133769139146 1.5588249805221792 255 226 61 0.28079134520244625 13 850 49 1103 3 744
4667 -0.068412874118286615 1.2413961257246107 2.2308729451787777 53 58 80 0.33163337958497824 13 1010 49 1127 3 836
4668 -0.47359337189644696 1.3036446768418761 2.5656511258860721 49 54 75 0.19320630656275417 13 976 49 1135 3 846
4669 0.52818055296772271 1.3901905266995342 2.2839960665706949 61 50 38 0.56154289170479865 13 902 49 1136 3 845
4670 1.2949205432108881 1.5875722749895673 1.3368151034703328 0 0 0 0.65210704053956703 13 960 49 1176
4671 0.87918682908050827 1.1577046754477163 2.1341917197883138 175 131 48 0.75391648637865627 13 1009 49 1177 3 899 50 600 27 632
4672 0.52070010506034192 1.3310474764872418 2.1892120567784996 6 4 3 0.45178411646509004 13 969 49 1178 3 838
4673 0.52070010506034192 1.3310474764872418 2.1892120567784996 6 4 3 0.45178411646509004 13 970 49 1179 3 839
4674 -0.5616464790907767 1.6011145770927286 2.7567402918275299 46 32 27 2.4647523251136851 13 1021 49 1189 50 580 67 603
4675 1.2354371923726901 2.4363662395414614 2.0513576423136639 46 31 25 0.083220801942285039 13 1030 49 1196 3 922
4676 1.3091901526919891 2.4625382375552087 2.0346362158188112 64 43 33 0.24491814504580925 13 1031 49 1197 3 923
4677 1.4073666942963592 0.98760146594016296 1.7352590856846906 255 228 63 1.3654630023965924 13 996 49 1203 23 1143
4678 0.098871521936402418 1.2887873034711026 2.2008051755984925 12 12 14 0.33789235572723958 13 1043 18 1207 49 1207 3 937 23 1116
4679 0.16183352991084352 0.60289611932387321 2.1868741186505898 254 242 80 0.89338904802780328 18 1236 49 1219
4680 -0.33121027740084713 0.55220128303292737 2.0687427288311215 255 233 68 0.31899307859656867 13 1050 49 1226
4681 -0.3282390268466383 1.4421105663278444 2.568712124523076 60 67 91 1.6950488193224142 13 1064 49 1239 3 973
4682 0.53900864166755014 1.6890172288162566 2.4920090145339175 44 42 43 1.1227453879145064 13 1057 49 1241 3 963
4683 -0.62686465324649177 0.86989342415221782 2.392786329285272 0 0 0 2.2234340127029477 13 1060 49 1243 3 969
4684 0.010891026825350161 0.66721030844725815 2.0284472594785679 255 212 60 1.7129499842599589 13 1067 79 851 3 985
4685 1.7617784162358714 1.6632950915719367 2.5653918183353657 155 148 128 1.932899914730112 13 1079 49 1254 3 983
4686 -0.046287082007718625 0.85691556203024044 1.9594421025856814 254 229 60 0.48628617730363921 9 755 46 112 91 561 79 20 13 716 49 783 40 844 94 821 87 950 24 715 15 559 93 623 18 953 3 617 70 464 50 13 67 14 42 449
4687 -0.46574120646915357 0.69879666124158368 2.095614585715007 32 27 27 0.1927360804564307 49 20 3 19 27 366 50 172 67 196
4688 -0.40060481384254087 0.76022891636434775 2.1671992147887797 100 51 3 0.078561657546385041 13 30 49 39 3 34
4689 -0.40060481384254087 0.76022891636434775 2.1671992147887797 100 51 3 0.078561657546385041 13 31 49 40 3 35
4690 -0.40122388788407315 1.3181448429051548 2.5347249882224747 58 61 80 0.14488745579883883 79 305 3 99 27 410 50 221 67 263 85 380
4691 -0.10952738649250277 1.4301413300159151 2.5644690206993288 52 30 1 0.21531065761382218 13 128 3 114 50 237 79 325 67 429
4692 -0.33809766993773521 1.4372774362286713 2.6617892267912029 61 70 94 0.24068591685213073 13 533 3 124 27 307 50 115 67 134 85 274
4693 0.16926219615253013 1.6224187029484267 2.4227453168216018 9 8 9 0.11811479312323359 13 155 3 127
4694 0.29913111049363894 1.6595657214310748 2.3864615445627129 25 26 36 0.093458265930387557 13 164 3 129
4695 0.45718503897403306 1.7729167654278066 2.3425379156450141 32 29 34 0.05330566097986586 13 231 3 166
4696 0.48734237738836339 1.2970689893593774 2.0608756080467319 82 44 4 0.20313371021832496 13 476 79 263 3 386
4697 0.040681637146913821 1.2631438807681927 2.2042710129218368 100 116 151 0.34213076352434685 49 518 3 394 23 449
4698 -0.21203904413324895 1.210434758323476 2.471439936195349 40 17 0 0.41823390764266466 79 67 3 408 27 397 50 383 67 406 85 362
4699 -0.088262239015637664 1.2687136704499993 2.4291599090801603 2 1 3 0.51142038124349087 13 104 79 284 3 413 27 402 50 385 67 408 85 467
4701 -0.67208393486533458 1.077598282374757 2.5748341026801191 70 85 115 0.39045820284837079 79 733 3 664 27 589 50 561 67 582 85 529
4702 0.033923812043015825 0.82529260256171821 2.0258112682784466 253 209 59 0.47025448690799421 49 990 3 756 50 18 13 721 67 18
4703 -0.52689644824081783 0.9408731088602007 2.428573149780175 135 120 44 0.74490526312085081 13 879 3 768 50 472 67 573
4704 -0.024397369999349005 1.3247507049220664 2.3144115233536788 103 93 28 0.23553828781433497 13 900 3 782 50 559 67 580 85 527
4705 -0.79005546906313684 1.5257876837301474 2.8263869563790172 49 33 27 1.2268477019148947 79 691 3 813 27 616
4706 -0.33418099631329845 1.7242656345527636 2.5644668458646245 71 49 39 1.2239313779539882 13 1022 3 857 27 610 67 532
4707 0.076184923404673033 0.703422773816061 2.0348181784388517 89 53 19 0.30584369053244381 13 949 49 1161 3 892
4708 1.566722890108311 1.3942780724138628 2.6948439555665376 98 66 48 1.2194742869498183 13 1019 49 1209 3 918
4709 0.19642869840348401 1.3636928930692704 2.3402389832917092 123 75 11 1.3330721421835923 13 1054 49 1225 3 950
4710 -0.29087951483838331 1.2532566444023228 2.5085177628286193 3 3 4 2.1278479108611177 49 1238 3 961 67 686
4711 0.35891983049347942 0.94121390082696588 1.9036035988437785 0 0 0 1.2993010130803189 13 1068 49 1227 3 968
4712 0.2966294844383689 1.661919026852652 2.4098023805642503 36 39 54 0.5099084525115547 79 858 3 978 83 1262
4713 -0.44571438571159716 1.0488800406005929 2.4437824670610486 100 87 26 0.35959351914271687 13 1077 3 986 50 676 67 707
4714 1.118454791935904 1.0519463770706412 1.4555835097242891 176 101 10 1.7104976141423189 3 993 85 653
4715 1.2582259645328007 1.3480238567693832 2.1393217982262258 0 0 0 2.3110572917955303 13 1086 79 866 3 996 27 714
4716 1.4538169215828531 0.93266947266911315 1.7294956495576517 120 69 10 0.22729073925442642 18 83 93 97 70 62
4717 1.5077543165382434 1.3202899904670014 2.7557045170570387 150 99 71 0.62592164534219585 93 170 70 112 75 194 89 529
4718 1.3670798965196278 1.2366658919742373 2.8244540680088375 103 72 60 0.31062871328313918 93 351 70 229 42 252
4719 1.337195738151876 1.306352289447718 2.8166691449704433 224 209 173 0.19394987678682327 93 355 70 232 99 190 75 547
4721 1.3542415772502785 0.94090292262109476 1.7620138122623916 255 214 53 0.70847082907562087 93 665 70 286 42 322
4722 1.1796932111894576 1.9210013814729641 2.3978688603478564 226 211 173 0.31340672516944984 93 388 70 432 42 420 99 317
4724 1.6157262284825662 1.1990971146574749 2.7956683838970884 0 0 0 1.2475755779106878 93 699 70 516 23 943 18 1007 42 523 92 909
4726 1.3251712121455599 1.8302221805152705 2.4371787485256733 251 228 179 0.26212493851931168 18 863 70 596 42 537
4728 1.5091895894316658 2.0616777933187755 2.3072095877576921 245 224 177 0.31912555154240996 93 875 70 685 23 1006 42 633
4729 1.0072933521899678 1.7016957087230373 2.5454138418911256 250 225 174 0.19703313481018864 18 1021 70 765 23 951 42 694
4730 0.18414344996870061 0.55167669977982614 2.2373689272738329 228 229 243 0.41611233163662703 24 1079 93 989 70 780
4731 0.97029667068574643 0.71881713287108795 1.5232086383938566 239 243 251 0.28950022181730606 18 1084 70 786
4735 0.79245540759222555 2.4104924538704591 2.0684726438181458 0 0 0 1.8402775831597917 15 1039 70 893
4736 1.0207845842024752 1.7930891810778709 2.5002434424365596 225 209 171 0.2935150358481321 18 586 49 280 70 240 94 596 7 732 40 593 87 684 93 380 26 518 60 505 55 440 46 829 9 838 91 242 98 181 17 330 95 353 64 537 23 588
4737 -0.49264075721687622 0.60483082202761496 2.0165877677318003 36 0 0 1.1575834397893585 93 984 18 1150 70 706 40 819 94 1071 87 928 24 980 15 808 93 902 44 851 23 1096
4738 0.95492453228081953 2.1757570466997818 2.2551251841661446 156 142 116 0.35534840480571528 18 1144 70 817 94 1155 24 1069 15 887 93 978 23 1085
4739 0.81936009952540745 2.2607086483376233 2.1763493918594783 100 67 50 0.23202522856676921 3 588 27 183 50 163 67 185 85 164
4740 -0.46095784651278088 0.72890269507937433 2.1180893534232976 108 95 26 0.20218141664888661 79 232 27 200 67 17 50 16
4741 -0.39830164168444643 1.3321537527939635 2.5633820646715963 26 19 13 0.14696725638080119 36 429 79 94 27 253 50 80 67 97 85 239
4742 0.27299590195791695 1.6300036428407063 2.3626928724755274 34 24 4 0.19324599221394595 79 342 27 259 50 236 67 275
4743 0.27216103824403637 1.6310522721030756 2.3607408125681788 34 24 4 0.18177605312406711 79 343 27 260 67 276
4744 -0.4303224548738776 1.3380114844401625 2.6008010408085309 31 20 7 0.1725355101198667 98 676 27 262 50 229 85 248 90 174
4745 0.87881115899386331 2.2914295442038339 2.1467944226955291 106 77 64 0.43482232917622965 79 604 27 348 85 162 67 186
4746 -0.6386392520871933 1.6245403369889722 2.6925633083325011 119 82 63 0.23560099829238457 79 592 27 350 50 149 67 177 85 301
4747 -0.27804043235478354 1.179573897449929 2.4942917246084475 3 3 3 0.2538627734322994 3 406 27 396 50 382 67 405 85 361
4748 -0.19011744496531188 1.2446995412811115 2.478654115189499 76 63 14 0.14775506628599089 3 416 27 404 50 391 67 412
4749 -0.34156992682637533 1.366074834279386 2.5431167990600856 60 66 87 0.20205082566325772 3 425 27 414 50 399 85 474
4750 -0.029438040746773506 1.5269990492458845 2.4674251088607981 29 8 0 0.4913452913197458 3 437 85 388
4751 0.82478204356508511 1.4290831516554037 2.0776047204707364 172 159 153 0.73607025282817562 30 566 27 521 85 460
4752 0.45651447267272033 1.9198860039279475 2.3874652466919262 211 189 145 1.7191867224260535 3 519 27 545 85 483
4753 -0.68372905768564141 1.6409226626136917 2.7008897211010918 50 34 27 0.17188424288855836 98 1106 27 552
4754 0.38953801107376468 1.3921730090970355 2.1258616802499661 73 81 86 0.5208479768062233 79 729 27 577 85 522
4755 -0.022453094280919381 1.4607481742926196 2.4872545033971312 78 61 15 0.24633148027859975 79 671 27 600 50 570 67 589
4756 -0.88292934880147489 1.4770894474245173 2.7952143447524378 102 104 93 0.070788560914994358 79 684 27 611
4757 -0.86869478504880038 1.5529895286430173 2.7686263417478778 58 40 32 0.30335559908952486 79 690 27 615
4758 -0.072980241016165806 1.4717056251061509 2.6015000552528234 87 75 21 0.1418809014628194 79 791 27 644 50 615
4759 0.43214193138249685 1.7863608963852906 2.4027140259190056 48 49 64 0.20181413090980113 79 795 50 619 67 642
4760 0.48636173353036183 1.8357033297818131 2.3440936264206966 3 3 3 1.2777222445234409 91 1268 27 665 9 1570 50 642 67 668
4761 0.47241909442673585 2.1098999529312645 2.2720920718888977 36 25 23 0.90808977392292345 79 836 27 684 50 645 67 673 85 623
4762 1.4362513435343502 1.8859361071455769 2.4466267669571513 0 0 0 1.8411634069352043 3 995 79 867 27 713
4763 -0.090418649297732814 0.71103599162898423 2.3525983395761494 0 0 0 1.5706329965539294 79 870 83 1278 50 686 67 715
4764 0.75028311655987112 1.4073391244505598 2.0955604607904221 111 91 24 0.24127348335544299 30 570 36 553 27 520 91 1060 79 642 13 891 50 477 85 459
4765 -0.16900140712441583 1.3495731280457932 2.5423227451748702 36 25 2 0.34009510357865036 27 70 50 79 67 98 85 238
4766 -0.46317561456558509 1.3449949100726948 2.6362391984658298 17 16 19 0.055711609416154918 79 108 50 86 67 104
4767 -0.37010306964878142 1.3988559224123369 2.6462352387738273 20 17 20 0.11658611485599894 79 122 50 102 67 294
4768 -0.32258541478895292 1.4398093102282359 2.6419964612724587 58 66 89 0.084576161034154232 79 130 50 111 67 130
4769 0.028783348201703033 1.0036862339492969 2.0942449424888094 255 234 73 0.092922241434146902 79 246 50 183 67 212
4771 -0.44369820382175895 1.2737781628340326 2.5253432875877304 43 41 50 0.14594775206794605 27 244 50 214 67 253 3 89 85 231
4772 0.76005064943605072 1.5506376569887108 2.3008170329085704 77 81 97 0.088518955614689476 79 298 50 218 67 260
4773 -0.40097097212962746 1.3186986279281694 2.5340410325436058 57 61 80 0.084688452426916541 3 100 50 222 85 381
4774 -0.52223883167888241 1.2971441123361507 2.6255357825082979 42 46 61 0.17310187775143776 13 120 50 227 67 267 79 314
4775 -0.36872374726062868 1.3650047467410371 2.5836913328568194 23 17 16 0.18006568436767609 27 266 50 230 67 268 85 249
4776 0.042780305024345246 1.2271939166632151 2.7768706463444315 86 70 19 1.9971945615896949 3 118 50 235 67 274
4777 1.6477580276433186 1.5128521742723451 2.6408321372325583 121 108 81 0.3515767768728279 27 261 50 265 67 313 85 87
4778 1.6986665950051574 1.5614039742156307 2.635883493286781 232 215 174 0.22276421588234707 79 534 50 268 67 315
4779 -0.48289011767931339 1.6322785443078738 2.6191534231157831 70 49 40 0.26038433689094048 27 335 50 289 85 161
4780 -0.41255461496440332 1.7400321600344957 2.5466893737903824 36 25 22 0.074716723205538904 27 343 50 299 67 332
4782 -0.39570686112076175 0.71439750701749138 2.1148642109122702 98 65 11 0.09723727019910082 79 460 50 334 67 364
4783 -0.097042980160266107 0.97835178716376625 1.9608362782279092 49 38 34 0.16137385751344061 79 462 50 336 67 365
4784 0.4817989757852173 1.3162417002332047 2.0501210942356312 79 53 7 0.10771568604756961 27 378 50 356 67 382
4786 0.72171933028352842 1.396677092812302 2.1302544856064536 70 33 2 0.053988263520769429 49 530 50 375 67 397
4787 0.70180301930181865 1.4263980444700182 2.1923351158099376 62 29 1 0.10574025404731222 13 494 50 378 67 402 85 344 67 403
4788 -0.14827736424671611 1.2329398137836143 2.4540947664904316 18 8 2 0.21815187813778744 3 410 27 398 50 384 67 407 85 363
4789 -0.021717943295727151 1.2935209537797607 2.4059748760273028 22 10 4 0.40178736954678795 27 399 79 285 50 386 67 409 85 468
4791 -0.34292867509248187 1.3684012839414661 2.5402867825408504 61 67 88 0.21502037513531835 27 415 50 400 85 475
4792 0.51020772947019533 1.0376052223078664 1.5436774894722616 0 0 0 1.2292302576555219 3 604 49 1101 50 443 67 544
4793 1.0972994125576991 1.5233235150501701 1.4102618607751132 97 72 15 0.34951814995134117 27 566 50 457
4794 -0.22227012628603426 0.45483940872256268 2.2515470412039136 239 191 56 0.89432001560186458 27 487 50 458 67 551
4795 0.44850849105487761 1.4026906888847437 2.0807391575725993 118 94 29 0.62845321031773038 27 576 50 475 67 503
4796 0.70003167386227372 1.4906504100754943 2.2873556166840983 117 95 25 0.10748077078592475 27 531 50 487 67 513 85 469
4797 -0.40056257379426863 1.3057309126671759 2.5161005072392149 39 43 57 0.12721714941457662 27 597 50 488 67 515 85 535
4798 0.67648852349368449 1.5319546345559911 2.3389851266799782 118 94 22 0.16479205881666947 79 662 50 489 67 517 3 790
4800 -0.53318383660573909 1.3394632524733692 2.7725168338555952 3 3 3 1.9522474022624923 3 450 13 770 50 500
4801 -0.91811807267754486 1.4780037449969896 2.7933368732564179 145 102 79 0.61389250683851537 3 802 50 509 67 531
4802 -0.7030081064760757 1.6686604820375062 2.7245473497280885 87 85 80 0.79538537094495931 49 866 50 518 67 608
4803 -0.17811008546380697 0.52099054552304802 1.9737852812965295 205 0 0 0.72538333055880833 27 556 50 529 67 546 85 575
4804 -0.036976007564619245 0.90927588338032228 2.0050209668818688 155 140 103 0.027860359629104433 79 769 50 541 67 557
4805 -0.52805572135613033 0.758416334247765 2.2275018553833603 0 0 0 0.17847382378726429 91 1162 50 545
4806 0.1514629892390294 1.2494097849459531 2.322071457877799 84 69 18 1.1918912281374126 27 528 79 647 50 557 67 577
4807 -0.057336296739784395 1.3064811221969439 2.448243423020557 81 69 16 0.098234575525740872 27 590 50 563 67 584 85 530
4808 -0.082582975578234033 1.4225407329576885 2.5194862771149631 79 63 16 0.27352155388696503 27 599 79 739 50 569 67 588 3 848 85 539
4809 0.044360166784252392 1.4759908496324623 2.4754852208672293 79 60 15 0.065065356894988741 27 601 50 571 67 590
4810 -0.57932057204753329 1.6714744385995852 2.6638624147172658 53 36 30 0.31930167174139079 27 613 50 579 67 604 85 555
4811 0.16636725531789262 2.0053607450744519 2.3944299155167119 38 26 24 0.24289272945559398 27 614 50 585 67 610 85 552
4812 0.32409971938668303 1.2841636282928333 2.1144567153610856 70 37 7 0.77465042288192276 27 633 50 604 67 572
4813 0.14670379387378632 1.3079034221473957 2.4515398063037126 79 59 10 1.4261309799002584 27 592 79 782 50 608 67 634
4814 0.43277021778648433 1.712268867853042 2.2482619021283798 41 44 61 0.83282021399197914 27 640 50 613 67 640 85 536
4815 -0.27167282003492244 1.570990955465569 2.6692689447054976 1 1 2 1.0573915753063765 79 835 50 620 85 621
4816 0.21210724263097494 1.8892982698949172 2.3934693878623037 1 2 3 0.79936381961861558 27 649 50 621 67 643 85 548
4817 0.49201062350373054 1.9257254161610207 2.3674974070296066 181 163 123 0.70267072106906181 27 668 50 623 67 601
4818 0.29134163431094035 1.7143243875065535 2.4873552189261687 53 61 81 0.39277247001123183 27 667 50 641 85 616
4819 0.3238505314147983 0.83471816822316425 2.2631258326366392 8 6 5 0.68920438441158183 79 840 50 654 67 685
4820 0.86061806115245232 0.90465765075614479 1.6797930964248291 11 14 17 0.50157726147985171 27 690 50 659 67 683
4821 -0.60078782850927048 0.8597782734108198 2.3594911419076743 0 0 0 0.68609010416653993 27 696 50 662 67 700 85 647
4822 0.054572028377970518 0.63458793224345023 2.0668957114690394 192 147 38 0.73645840257680739 27 694 50 665 67 698
4823 0.68950916580907318 2.0018417906742627 2.1957072600136791 226 205 163 0.81073476163985558 27 711 50 680 67 711
4824 0.65642559983610049 1.1284388459804338 2.0474405042360608 98 75 18 0.13999307171274372 50 683 85 655
4825 0.58637083814320956 1.0459655644245216 1.5354204081161098 0 0 0 0.088058180755890891 49 984 50 319
4826 1.5905650138190879 1.4167511947675859 2.7275019562981999 227 213 176 0.29518150491485096 78 78 82 353 54 404 4 98 43 397 59 63 32 152 11 492 92 628 24 471 93 376 76 166 76 376 25 585 45 769 47 81 86 597 100 776 80 598 39 658 28 420 31 432 57 499 18 555 49 214 46 169 9 217 23 584 84 558 42 426
4827 1.6053957829197438 2.0740312182821663 2.3075441033781536 240 222 178 2.0992268933717555 7 906 94 1012 87 1133 24 1073 15 894 40 1212 94 1215 93 1064 7 1214 55 1003 46 1481 9 1501 91 1107 83 1040 98 1066 64 462 64 998 79 748 44 845 92 917 18 1217 13 1027 49 1194 3 921 70 862 24 1137 46 825 17 257 95 289 23 1171 49 1214
4828 -0.48630421232756699 0.92860302535521999 2.2910336660725394 21 19 24 0.17928491892242829 50 33 79 38 67 36
4829 0.4320433107403035 1.3593725432541608 2.4085232755788204 9 8 8 0.79286150767038477 50 71 67 82 85 223
4830 -0.16309071229416464 1.4851809397966822 2.376067836774078 9 7 8 0.2252647470144292 50 76 67 92 85 75
4831 -0.46238137659481621 1.3370481620830992 2.6454455644998642 19 16 21 0.16947956683303769 27 280 50 87 67 105
4832 -0.35466605014352387 1.4141650305002487 2.6103345666580191 61 69 94 0.11295259762883567 79 119 67 120
4833 0.75587663351460566 2.0852655568615157 2.3203242749468198 107 76 63 0.43925723863470917 50 159 67 182 85 154
4838 0.085636197346004916 1.5029631900486831 2.5063034940051483 32 7 0 0.051257625480440064 50 245 79 338 67 287 27 423
4839 -0.055621894850094375 1.8666528000487013 2.4645411278091132 80 89 87 0.66050807241114751 50 304 67 335 85 298 27 344
4840 0.89701952148395681 0.78777875128648456 1.4709539432599648 12 11 14 1.6336596088943611 50 316 91 525 67 348
4841 0.65809168054634593 1.4668912711680058 2.2850591721549076 112 88 22 0.12586821916668617 27 401 50 393 67 415
4842 -0.10749439292386273 1.4246317770951722 2.5696526723881568 41 26 13 0.21356151491140163 50 238 67 428 85 391
4843 0.74957962634796804 1.504439863081483 2.2942864251049602 54 31 4 0.32715929420604445 27 405 67 514 85 364
4844 -0.80106061608478651 1.593543750069091 2.7313512795380079 54 37 30 0.079166876203122516 3 700 50 512 67 535
4846 -0.67395031769471747 1.5035836596235301 2.8485743176051859 56 38 31 0.36021134871690896 50 515 67 537 85 557
4847 0.78424296439901953 2.2170780637731102 2.1688575411417519 40 26 22 0.19976068162677271 50 519 67 540 85 419
4848 0.91607437658994462 1.5498570926790451 2.3683805909574169 0 0 0 2.4002311465130379 27 594 50 568 67 591 85 533
4850 1.3007112294533958 2.5345481838557999 2.1008843727785345 0 0 0 1.4174579652700157 79 762 98 1171 67 618 85 558
4851 0.89447250513065024 1.3171268437961581 2.1584801637072126 163 152 149 0.56825271753807682 13 1044 50 606 67 630
4852 0.34626186141593024 1.3608046971305843 2.3522806354352506 53 49 55 0.81016595119543522 27 658 67 633 85 632
4853 0.58450941700564407 1.8160658526361775 2.2979697765998388 189 166 125 1.5566406806610622 50 640 67 641 85 614 27 683
4855 -0.091742890718902889 0.70841865095169143 2.3522945700813707 0 0 0 1.7433106156568237 50 687 83 1279 67 716
4856 0.6665471575062798 1.4869977240739565 2.3188581787319293 77 36 4 0.25631332182126831 13 506 3 424 67 419 27 406 50 395
4857 -0.21643877555440247 1.3526304033014505 2.3842663551764898 75 64 14 0.49512367140426611 50 209 67 250 85 367
4858 1.1822053488228359 1.0010659665066295 2.9083643433508399 254 237 64 2.5228647657746106 50 490 79 780 67 587
4860 -0.48087525632592504 1.3713488134020535 2.6873999376708015 56 62 81 0.077893900869121319 27 102 85 107
4861 0.76210964784140589 -1.607388108686415 6.1827025068998482 0 0 0 1.562625369399115 83 998 85 488
4862 0.1351122122463761 1.930452640925316 2.4166525919116562 50 37 32 0.29099726624763528 27 549 85 494
4863 0.8100725012007709 1.1766249249848852 1.0950259798157327 0 0 0 1.4593375925472365 27 475 30 685 85 497
4865 -0.69109920416552173 1.712245176407603 2.7471403963527288 0 0 0 1.6914030089545691 3 858 98 1185 85 604
4866 0.8970253452533814 1.2211351273466757 2.0084822555855046 0 0 0 2.5572281746908279 27 657 91 1171 98 1132 85 630
4867 -0.12659859084796762 0.69245466525231514 2.2610822671656532 16 16 18 0.27766409006408144 27 699 85 648
4868 0.81733219681048075 1.4265096804756712 2.0664320816137698 180 155 134 0.49182775783361071 91 605 83 571 79 274 27 219 85 203 30 567 36 319
4869 0.70766256788438198 1.38022762193872 2.0941103276487536 109 89 24 0.19138037629081131 3 661 50 368 67 394 85 334 9 178 83 575 98 602 90 287 51 58 95 682 30 324 36 322 79 273
4870 0.69321254413693911 1.4381586428348543 2.229507208377878 110 90 24 0.57707674335004955 27 229 50 206 67 245 85 215 91 620 83 594
4871 0.72639050364951663 0.99392766265799137 1.4444150731440315 133 145 177 0.14007886025756483 59 7 65 3
4872 -0.54826229599458254 1.6174861755200935 2.6498184049977271 110 78 65 0.18257785725653627 59 299 65 318 1 168
4873 -0.021139938105465352 0.64924971182554481 3.3211461316045887 169 154 150 0.58617564722908677 21 764 65 580 1 180
4875 -0.65781970170025161 1.5282223741853498 2.7630856298717212 28 20 16 0.28023743543578311 21 601 47 276 65 594
4876 -0.15707904728611666 0.51156722289874257 3.4109688228722779 68 43 33 0.17135642525298905 21 593 65 607
4877 0.89398411561852353 0.75458776670790317 1.6375250706146542 20 27 38 0.48830176904261607 21 641 47 857 78 596 65 661 1 499 62 128 74 334 37 122
4878 -0.059489107935017604 0.72158646831088469 3.2184824730310049 23 20 17 0.76381668566460215 59 780 65 745 1 576
4879 -0.39233183644329134 1.2339849779082028 2.9761909938316284 66 69 64 0.5367070404512424 47 780 65 759 1 590 37 195
4881 0.99808653577928708 1.0909468233680784 1.6871893045395827 133 94 23 0.72225418523437235 59 868 65 821
4882 -0.17243659988153395 0.70433109067906341 3.2753853154373505 228 213 178 0.97172243602965225 21 931 65 902 1 588
4883 -0.54688076958310461 1.6885348171818892 2.5782492690800312 0 0 0 0.50161224222795076 21 1021 65 974 38 362
4884 1.2419259042018911 0.58177950849810467 1.5377281924037336 152 133 52 0.87155524068695422 21 1078 65 1031 2 766 74 411 37 257 62 198 38 388 20 510
4885 0.6448209646578732 2.1730635547891803 2.0355393810262887 0 0 0 1.6141987872682551 21 1146 65 1076
4886 -0.17765258271341133 0.7316472096924177 3.0611246673125789 27 25 22 1.0271839670144909 73 1055 8 1103 35 691
4888 1.219567050228433 0.69741281560910795 1.5828306233875951 153 131 50 0.53961295992162495 21 1140 65 1087
4889 0.1615511225146333 0.8583756742744042 2.215061829924005 233 196 65 1.6334320954046875 59 1191 65 1098
4890 -0.16077113599152304 0.81388323638675564 3.245503316451662 81 78 66 0.50553083200546334 4 333 59 329 21 262 65 593 21 573 47 805 1 200
4891 -0.34528951693679388 0.61750798213677005 2.7258606097200331 53 52 56 0.33933004525157867 77 107 58 93 48 208 33 296 81 586 2 618
4892 -0.64443761685792766 1.5363532591997964 2.7681684276257745 37 27 23 0.39637953667146847 33 558 58 174 48 255 81 658 2 691
4893 0.79886778863485575 1.2539103443898718 1.2578196369853329 135 123 50 0.19973500817734066 77 260 58 192 48 10
4894 0.76319160118636509 1.0102822797925946 1.4241860681585046 89 108 147 0.32441801259561814 77 259 58 193 48 8 2 571 74 203 62 1 1 377 37 2 38 162 20 183
4895 0.76219671967835156 0.74056864991946281 1.8422486422728335 82 75 71 0.38219775082889162 77 267 58 206 48 19 81 335
4896 0.96908411621632451 0.96921610951086745 1.8314334325417641 39 35 37 0.20968704659483392 77 277 58 217 48 27 81 33
4897 0.73298474466149155 1.3199202378144836 1.5774730392634819 0 0 0 0.19500649318615107 77 482 58 218
4898 0.34183378473756593 1.2087283139243288 2.0040325338644718 88 50 4 0.081202442183265264 77 72 58 247 48 38
4899 -0.22505242419340185 1.2114800383637963 2.477381442643757 37 21 2 0.087141003290832353 77 361 58 281
4900 -0.33688488959520918 1.1532632942197343 2.5201933089175985 90 73 16 0.052101176020217944 77 364 58 283
4901 -0.50923228769589313 0.95027894628606813 2.6546960973031335 133 144 171 0.31281203357088538 77 365 58 285 48 219 81 602 2 633
4902 -0.058926766526741184 1.4601828689441045 2.5375653028921756 61 44 6 0.017472363335141003 77 548 58 300
4903 -0.20937079640711528 1.4647431789711343 2.5501879554400859 9 7 8 0.0041471856891986247 77 391 58 305
4904 0.016419414583447547 0.63506815744012579 3.3107654660160715 43 24 15 0.30131263111152856 33 491 58 307 48 95 2 645 62 65 74 273 37 80
4905 -0.098034227665816556 1.8473104064580848 2.4999349910754893 29 20 17 0.018752991287245065 77 569 58 319
4906 0.73762741570055268 1.0295958069432849 1.4595999915251967 7 10 15 0.28048503910223194 77 592 58 376 48 172 81 543 2 572 62 127 74 332 37 125
4907 0.6659832875098749 1.0370009998897747 1.5322400528208997 6 8 12 0.7669731992390626 77 471 58 379 48 280 33 590 81 682 2 774 74 417 62 212 37 220
4909 -0.12147984335712561 0.80246238440631856 1.9715068853812663 76 38 3 0.14592877293122211 77 283 58 392 48 179
4910 -0.45984299108871535 0.70298582604960136 2.093860509355614 28 26 25 0.19430387589630016 77 497 58 397 48 182 81 361
4911 -0.26601708006189534 0.59723082050345577 2.5103445851351083 32 29 29 0.13209439768184864 77 514 58 415 48 47
4912 -0.26601708006189534 0.59723082050345577 2.5103445851351083 32 29 29 0.13209439768184864 77 515 58 416 48 46
4913 -0.1098741121748438 1.4833814449369938 2.6049716297595786 88 76 21 0.22726509938938066 77 560 58 458
4914 -0.96726720285428069 1.5321847942884725 2.7846722046884587 54 36 28 0.19173747581261297 77 583 58 475
4915 0.81578182562650936 1.2108955514405479 1.380588032272279 118 108 34 0.14158284214887634 33 588 58 485 48 278
4916 -0.21840575002747367 1.0416538582506505 3.1300980254703288 99 99 89 2.1670378832702419 77 660 58 557 81 815
4917 -0.23735965964973124 0.535422787168086 3.5758471911685068 0 0 0 0.88795210980507544 33 746 58 560 2 820
4918 0.71752593893461514 1.0862190043024684 1.466444622127655 125 106 42 1.2745053040361409 36 812 77 674 58 568 81 769 2 709
4919 0.7492070632469261 1.337234877469283 1.5186586148709202 107 67 8 1.0566426183635405 77 679 58 579 2 713 81 687
4920 -0.26681009174032488 0.51193624577058883 2.7333935603023845 0 0 0 1.2931451138606396 33 723 77 704 58 600 48 380 81 847 74 545 62 361
4921 -0.26274883886130262 0.61035516031814319 2.6824757788438358 104 79 15 0.72355929703360211 77 705 58 602 48 319
4922 -0.50625836104407906 0.94814111206759955 2.550513525070095 99 65 8 0.72257365492611503 33 730 58 604 48 435 81 853
4923 -0.51636562904657657 1.010060058115009 2.559681524041312 112 102 32 0.60279209497023623 33 731 77 643 58 610 48 389 81 796 2 847
4924 -0.050594053934753219 1.454152411169028 2.485995566284231 78 61 14 0.029987967362983377 77 717 58 615
4925 -0.063956764267870309 0.4879056003855507 3.3708788051269645 0 0 0 1.1272124143623026 29 1098 58 616 81 738
4926 -0.4774065073036064 1.2636272509768545 2.7948660517766677 6 7 7 0.19921897885697748 77 659 58 622
4927 -0.15543927914906835 1.9228210824820053 2.5897436668749458 0 0 0 0.051675361546742682 77 727 58 627
4928 -0.28016966671751448 1.8807250508927749 2.5969232607416295 0 0 0 2.1522905889564639 33 662 58 629
4929 -0.60982087336473012 1.0171400555277363 3.2254546828171433 0 0 0 0.84382293673513076 33 755 58 630 2 856
4930 0.94642025514077877 1.3515228594881101 1.2192063403212701 108 92 25 0.59402012230907997 77 759 58 635 48 417
4931 1.3658766554246242 1.5870199282940152 1.436418194436428 0 0 0 1.0564128879982619 77 767 58 642
4932 -0.27705647443593956 0.57651435873743817 2.5789561412910698 146 0 0 0.47493760415706932 77 700 58 651 48 457 33 808 81 872
4933 0.22916794775194549 1.6224024110959789 2.3005075655067646 40 48 68 0.078882719190562722 77 744 58 655
4934 0.97521913898240908 2.311764984663911 2.1401748154593689 51 34 29 0.025110489001427164 77 748 58 661
4935 -0.068728658091850955 0.64368995347878699 3.3253103878920975 55 39 32 0.50646175878964739 77 721 58 665 48 440 81 880 2 876 74 556 62 369 1 797 37 353 38 506
4936 -0.33486867239581725 0.47787622217411135 2.2097702901878171 70 48 33 0.9743913958867223 33 803 58 688 48 478 81 864 2 863
4937 1.1340939789400819 2.3016979028454703 2.0791732130533092 191 178 145 0.60306027670623463 77 779 58 698 48 462 33 825 2 845 81 875
4938 -0.49361975562917287 1.4106196219348126 2.661747000183416 51 61 85 1.3711928161662936 29 1186 33 818 48 483
4939 0.88047879266800977 1.3317179457268802 1.1267771608639128 0 0 0 1.7894424802356927 29 1157 58 707 48 475 81 861 2 880 1 764 37 337 38 434
4940 -0.48099274153715393 1.3184350014290278 2.7657844073318385 10 10 11 1.1742293211568244 33 859 77 816 58 729 48 504 81 915
4941 -0.2258993155465546 0.52797033349778733 3.1402513148133226 0 0 0 2.2298496750454597 77 824 58 740 48 507
4942 0.61927966577072002 1.9675466281255607 2.2102599272078134 200 184 148 1.6323908237953968 77 826 58 741 48 505 81 912 2 915
4943 -0.28435108323042324 1.4333472623337455 2.5892192809847585 51 61 84 0.060690162292427366 77 723 58 619
4944 0.82148589632029434 0.95642290124728846 1.3954634964520041 4 2 2 0.27756921873042378 33 235 48 6 81 322
4945 0.81855176416187392 0.9608841812065787 1.3987328776122934 4 2 2 0.64907755281373269 33 236 48 7 81 323 74 325 62 121 37 116 65 658
4946 1.0047601323349478 0.84645472370124475 1.6405955886463994 134 111 34 0.6260625542646906 29 409 58 201 48 12
4947 0.93265658381494365 0.96016963728841775 1.7751871743760006 101 51 2 0.15777663344774406 33 245 48 21 81 336
4948 0.28896118281907718 1.2235632975351043 1.9029886020345312 97 111 141 0.075737758449901216 33 263 48 36 81 363
4949 0.024913658338282376 1.0965056620102644 2.1982776904830947 71 78 96 0.086592891451798423 33 275 77 323 48 44
4950 -0.28128870651202414 0.54264797632159478 2.5364623316437105 133 106 31 0.13488270640832589 77 80 48 45 81 380
4951 -0.11891351786600021 0.72887908864342688 2.6206825927402044 63 52 49 0.49892104831724138 33 469 48 53 81 578 2 608
4952 -0.50923114597905472 0.91449200265624653 2.6838734542512821 36 41 56 0.16801000420721765 33 309 48 67 81 603
4953 -0.56611354284613291 0.99818270111337282 2.6404697119067344 14 16 19 0.12342402132203208 33 320 48 76 81 418 2 433 74 375 62 165 37 172
4955 -0.059988749626939633 0.8015121768633946 3.2535662530155776 92 90 76 0.31761373211526756 33 340 48 105 81 446 2 467 74 279 62 71
4956 -0.23603809444137033 0.5462994314988614 3.4250212598877936 59 38 26 0.34415019880643122 77 402 48 109 81 462 74 179 37 99 1 474
4957 -0.34324716799416782 0.75125541211638114 3.3072206829104309 93 92 80 0.41469942391088654 33 517 48 121 81 633 2 673
4958 -0.41612053236924429 1.2604315785054947 2.9185295659649917 78 83 77 0.96228790072101811 33 381 48 125 81 483 2 502 74 284 62 80
4959 -0.6102405789478883 1.0014501111374268 3.1197988073691096 129 128 115 0.1873568761171531 77 212 48 140 81 509 2 537 33 397
4960 -0.88051952839905911 1.438063638994646 2.8713882459286744 154 151 133 0.328258317980825 77 466 48 168 81 535 2 362 33 222
4961 1.0292856287455143 0.7255759511835197 1.7008687507630564 149 130 50 0.58789690089019619 33 434 48 173 81 679 2 703
4962 0.46125501325078477 1.2245675802727092 1.7199231695269321 5 7 12 0.20745946074864571 33 443 48 178 81 347
4963 -0.16312443050525322 0.92535864411134894 2.0322584336830158 88 103 137 0.17835352041941532 33 454 48 188 81 561 2 397
4964 -0.31919183657582645 0.72033865104202077 2.7858901977499095 97 90 27 0.085725696109024432 33 302 48 213 81 593 2 621
4965 0.19687919491880684 1.9707532030256236 2.3773864304320544 49 36 30 0.14409232397690733 33 488 48 229 81 605
4966 -0.56572506145129098 1.107230743496286 2.7687681517581901 56 45 33 0.94069443066110425 33 506 48 231 81 444
4967 -0.095033663352911704 0.97707196857481116 3.1232752163424786 69 67 59 0.28015785737706728 33 499 48 233 81 619 2 647
4968 -0.36060698999393553 1.1229050535745349 3.017226340241749 91 94 86 0.25157682799525505 33 657 48 243 2 754 81 631
4969 -0.53202489016897681 1.6687309110369242 2.5957726870837141 30 20 17 0.21379436903143623 33 533 48 247 81 635 2 488
4970 -0.64774263101344354 1.1375126495172725 3.0525325711894955 122 124 114 0.13342472926921875 33 552 48 253 81 663
4971 0.99381048876391809 0.93836522705870895 1.5537813817205623 134 111 44 0.48150756945460449 33 584 48 276 81 678 2 706 74 416 62 209 1 692 37 219
4972 0.80392164844867375 0.75959037782675654 1.751751787158998 103 118 154 0.14765561831066198 33 589 48 281 81 683
4973 0.4998212939169458 1.0558016086218653 1.5700973654653898 238 204 71 0.1464152299208083 33 691 48 283 81 771 2 777
4974 0.84545431423082751 1.2405476542028586 1.5088225796785473 94 66 10 0.29041844893687657 33 438 48 284 81 545 2 577
4975 1.0474859642026739 2.2783402471590128 2.1461084939201553 92 64 53 0.1947144186469483 33 726 48 324 81 713 2 738
4976 -0.47036693497863463 0.92488017567847425 2.6174367062914183 105 95 28 0.48784663893953589 33 635 48 325 81 718 2 743 74 441 62 241 1 548 37 237 38 281
4977 -0.62068009479378927 1.1003793791548444 2.590000779520762 55 65 87 0.093740310958940601 33 644 48 330 81 730
4978 0.38396879610596996 1.8726579603863078 2.4661556784189971 31 29 24 1.0444325372822834 41 799 48 331 17 1334 55 938 95 1261 97 862 46 1364 98 949 9 1197 91 966 60 1009 26 1001
4979 0.54283092987547865 2.1866531919188361 2.3274728126978483 88 88 83 0.38543548596172594 36 797 48 336
4980 0.7270832829027537 1.0841290103052608 1.4674766933830181 122 101 42 0.52542804546130495 33 766 48 350 81 768 2 708
4981 0.76297008227396701 1.268069458704179 1.3442477510606055 129 118 49 0.26570531678188952 58 569 48 351 2 773
4982 0.42548188227994305 1.1808605183308076 1.8028429070590017 155 119 39 1.7866154845147266 29 1066 33 700 48 360 81 833
4983 -0.36781888521797612 0.79099438843270831 2.8062613644218062 100 93 27 0.59572068113085608 33 638 48 390 81 797 2 848
4984 -0.61319247286096301 1.0563896559669856 2.5848296821804757 90 106 137 0.48893860930680044 33 737 48 394 81 802 2 805
4985 0.10440448674204329 0.60251353690565057 3.3400714478555527 162 114 87 0.84778614640978078 33 735 48 398 81 806 2 853 74 527 62 308 37 329
4986 1.0575750252411424 0.6642480266237154 1.6886024792525636 143 113 36 1.3702799221566071 33 796 48 443 81 884 2 881
4987 -0.29542219183709051 0.57668406625845159 2.5717972875329629 114 0 0 0.089306507019060358 33 809 48 458 81 873
4988 -0.50306678004392424 1.4728886068560321 2.72526674381032 2 3 5 1.4716110478523272 29 1203 33 834 48 471 2 900 81 893
4989 0.50877728585235171 1.1866843862754488 1.6701064665228176 82 83 93 0.68056122518442175 33 839 48 485 81 895
4990 -0.32939184323645282 0.87581444630571958 2.5371762160500686 158 124 34 0.76522777153183785 58 711 48 491 81 899
4991 -0.012224083290596519 0.908758930119825 3.140918064082336 0 0 1 1.5997545414106644 33 854 48 503 81 911 2 907
4992 0.63794697507218334 1.9732869112793503 2.2126509153522118 214 200 166 1.1700972275671484 77 827 48 506 81 913
4993 -0.10706315366069633 0.47173409929360516 3.1555458752039538 0 0 0 1.8051922341248874 33 866 48 511 81 917
4994 -0.80739230966754638 1.4324571560821975 2.8310254592664932 127 130 121 0.87153992994704488 33 868 48 513 81 920 2 921
4995 0.73065563153871949 2.2444723776257107 2.194661928155945 36 25 22 0.78935458239594813 46 1191 51 531 17 1159 95 1104 41 343 29 589 33 482 18 625 48 225 51 605 30 833 36 792 77 652 58 544 81 401
4997 0.74883989965761344 1.0522304786273118 1.3257853006203641 34 39 46 0.16620879908309935 29 407 33 237 81 3 2 4
4998 0.90643812615464725 0.95271826614229005 1.8901845204346321 155 130 47 0.14297464169181293 29 423 77 37 81 36 2 28
4999 0.011033996528319406 1.093605537849103 2.1931108728637563 72 78 92 0.22758394017749395 33 56 81 56 2 85
5000 0.38450033164836855 1.3714411368045745 2.1150185374232224 97 86 27 0.16367342719088965 33 274 81 57 2 84
5001 0.66748257677560163 2.1228966557628866 2.2618500873702989 30 15 9 0.22945984784319787 29 241 81 127 2 140
5002 -0.37911364035881251 0.81592813098202521 2.7431058471462357 51 32 3 0.10497799760987496 48 65 81 130 2 153
5003 0.30328036775508821 1.9754818719767726 2.3636783734102429 29 19 15 0.096834535980915445 33 312 81 138 2 157
