# 3D point list with one line of data per point:
#   POINT3D_ID, X, Y, Z, R, G, B, ERROR, TRACK[] as (IMAGE_ID, POINT2D_IDX)
# Number of points: 357, mean track length: 4.9422250859106533
2813 0.20957153930274389 0.4510668393569634 2.0054461580701446 80 158 87 0.21371310066597027 74 1810 35 1890 37 1921
2814 0.16591811888299618 0.51213061594922327 2.2303987375597671 70 142 78 0.25723527793605944 34 1886 35 1907 77 1548 59 1951
2816 -0.63276892157809728 0.32993038219894855 2.7195507677126134 182 157 89 0.14768082751834261 34 1902 35 1921 59 1594 37 1598
2818 0.078700221220841665 0.67918918652814109 2.7139445501981454 73 128 66 0.30348254903755373 34 1936 35 1962 82 1633
2819 -0.21904484550050438 0.71527154343545807 2.6284306214331239 67 120 59 0.33196457343510549 34 1941 35 1965 82 1669
2820 -0.31000779058622258 0.81116777916937588 2.5873253289440257 56 110 52 0.30558372710682508 74 1887 35 1978 83 1475 12 1526
2821 -0.68247855234898214 0.86846726938875385 2.5667687267942219 254 234 132 0.31045780985380567 74 1891 35 1985 37 2052 30 855 70 693
2822 -0.61241367482450482 0.95018184542932771 2.5589835240416035 205 197 113 0.079606573731413235 16 1717 35 1995 95 1807
2823 -0.99586161451760857 1.1031079446016261 2.614327652847261 108 185 89 0.29893060416047562 34 2022 35 2021 59 2110 37 2106 100 1947 77 2181 55 1960 82 2351 85 2210 61 2363 76 2123 52 1692
2824 -0.85180412862706545 1.1200753090759703 2.5763912820560302 204 209 118 0.12660422978896163 95 1835 35 2022
2825 -1.2987881111119297 1.041728255777209 3.386599151716819 243 253 255 0.78247126734128358 74 1637 35 2040 77 2200 59 2145 37 2153 100 2007 82 2191 85 2067 61 2186 49 1667 60 2156 79 2072 20 1979 53 1859 18 1646
2826 -0.068509470776804152 1.3423306029284219 2.6445363775316326 149 157 101 0.79665551202942408 95 1860 35 2050 8 1330 31 1264 78 1151 30 845
2827 -0.33750619954647693 1.3913737031069655 2.5882050867767865 103 136 77 0.16848839377249761 34 2053 35 2053 77 2154
2828 -0.28184236998279655 1.4418622326214092 2.5989840557527817 215 210 133 0.58145346645154627 74 1972 35 2056 64 1719 7 1495 75 1226
2829 -0.83744688094847364 1.4420824173200673 2.7751955262807702 147 124 103 1.920634765162873 74 1282 35 2065 55 1264
2830 -0.0082485352012037268 0.091696710685226571 1.5961991880028796 141 112 84 0.74707485852395805 74 1756 35 2083 12 1080 2 718 37 2159 100 2028 85 2076 64 1775 27 1700 7 1556 80 1340 75 1288 46 1221 39 1058 69 854 11 862 47 805
2831 -0.09676390040975108 0.30329353507842843 2.0417924382383124 70 142 79 0.16652364683678963 34 2113 35 2111 77 2241
2832 -0.32568099654726196 0.20859210799649014 2.2016211091515547 138 152 102 0.14882765217933486 74 1786 35 2112
2833 -0.047744727655000083 0.33283102834296785 2.0518465123680589 71 142 78 0.060124975492962224 34 1865 35 2116
2834 -0.028220648990115445 0.39367426037414022 2.2151549357366429 71 143 80 0.19198813731586026 34 2119 35 2126
2835 -0.19336606087418531 0.30275757642681667 2.4910427691606132 83 130 75 2.5985046937626932 16 804 35 2129 83 1416
2838 -0.9215967855661662 0.90609119902730328 2.5836116233471995 100 158 75 0.3856328144228236 34 2183 35 2177 37 2274 100 2112 85 2185 59 2260 60 2095
2839 -0.79751129704915236 0.99074165283218807 2.5600941284982999 87 140 69 0.17981753419367003 74 2094 35 2181
2840 -0.96926514120470819 1.0609943333231169 2.5988754459627175 108 181 88 0.25305498953020766 34 2201 35 2190 100 2124
2843 -0.35320941407175704 1.517549221028754 2.6262761612207193 129 164 94 0.5495139478603619 34 2240 35 2229 76 1586 64 1913
2844 0.11767177920194541 0.15434775286761965 1.5376471956226823 104 78 53 0.79369244303447084 34 2084 35 2242 59 2158 100 2189 64 1951
2845 0.02783166818502383 0.21432531802211888 1.7387495009814871 69 132 70 0.10498963373103 34 2255 35 2248 59 2338 37 2177
2847 -0.55636720007078722 0.10646063200532935 2.5488230842916693 195 191 198 0.48039085176189972 74 2024 35 2256 59 2210
2848 -0.99270124239380853 0.96009525306255861 2.5950687520302993 195 203 110 0.17196614846716859 74 2204 35 2292 85 2386
2849 -0.78925521034313273 1.2452026612613034 2.5899816913054501 191 202 116 0.98686238313686514 34 2306 35 2307 100 2250 85 2393
2850 -0.29610928331223324 1.4483567242450732 2.6158855958788672 222 221 141 0.25769276192712909 74 2234 35 2321
2851 -0.45115296148488959 1.4815897714022028 2.6117800937999229 163 190 112 0.83060661637407562 74 2237 35 2323 12 1817 16 2025 59 2396 55 2081 64 2033 83 1759 80 1442
2852 0.036879198107672505 1.4596662279322732 2.9162997093548921 255 255 255 0.52121121905378232 74 2159 35 2325
2853 0.3543929878175337 0.26463865123892172 1.6593329915011548 0 0 0 1.026918998564043 49 1892 74 2245 35 2334 55 1757 33 1545 46 1431
2854 0.038387755188450723 0.35616032764172106 1.9621532151373458 129 157 104 0.12396474358574351 34 2330 35 2339
2855 0.37352602377111505 0.42643944071516116 1.9186973385352708 148 147 159 0.85764626571999214 74 2252 35 2342 59 2411 100 2271 85 2349 27 1919
2858 0.10733235282246519 0.34943915310329626 1.8843621225662983 67 135 73 0.73878170033492063 34 2390 35 2386 77 2567 37 2457 59 2456 85 2412
2859 -0.099784588340319252 0.19549486046025327 1.8210435499512034 112 146 91 0.69304364235756899 74 2333 35 2420 100 2376 37 2498 85 2448 79 2299 26 2236 53 2040 93 2008 18 1958
2860 -0.22216147986484991 0.24955150525466721 2.1056951444222478 70 143 80 0.99707126669494484 34 2424 35 2423 77 2662 59 2556 37 2563 100 2443 82 2635 85 2501 61 2676 76 2391 64 2216 60 2437 79 2352 26 2318 20 2213 27 2064 7 1933 65 2167 53 2106 93 2072 18 2025 80 1682 75 1610
2862 -0.82627987653807711 0.89519369188172193 2.5711197440009803 92 153 72 1.2756955897053845 34 2448 74 2410 35 2449 77 2712 49 2351 63 2326 55 2452 43 2529 31 1643
2863 0.06418278851873338 1.4322224509271515 2.6931587933866381 238 229 228 0.8698335799764273 74 2328 35 2464 12 1906 100 2365
2864 -0.24838515933175132 1.5465412380314842 2.6279608349183619 80 146 67 0.7230077499018327 74 2376 35 2468 37 2624 85 2560 83 1903
2865 -0.071160553309250349 1.6112908465357987 2.8333327237993435 255 255 255 0.43082390865159875 74 2331 35 2469 100 2420
2866 -0.44958131771767251 -0.0098354133898031042 2.0788373683092258 193 191 200 1.4992194349211851 35 2477 7 1929 80 1678 75 1606 46 1478 39 1445
2868 -0.14244231853492614 1.7470577279826141 3.4217810384448408 240 226 214 0.98600965638500193 74 2443 35 2542 12 1949 59 2618 37 2632 100 2504 85 2574
2870 -0.5950767703939972 0.16231402087472169 2.5564131581341556 0 0 0 1.589919522477049 74 2391 35 2544 12 2004
2871 0.27287553954232613 0.2567406942948493 1.6456580634142857 188 188 198 1.2931259063684579 74 2454 35 2552 77 2744 59 2627 37 2642 100 2506 64 2267 26 2310 79 2344 20 2204 27 2055 7 2002 53 2090 80 1745 75 1659 46 1579 69 1294
2872 -0.52312637120449212 1.1883305656716048 2.5532412669096498 220 217 131 0.42926732208603174 2 1669 62 1680 35 2031 16 1758 74 1938
2873 -1.0370355053228077 0.67634369929358829 2.574967293041357 251 245 245 1.6864468030709716 54 11 34 1105 62 793 35 1618 16 1673 49 1880 95 1762 2 1563 62 1237 54 1061 74 1512 77 2339 12 1643 59 2050 37 2047 100 2107 63 1208 63 1862 55 2132 82 2135 85 1949 61 2343 76 2116 98 1240 8 1170 31 975 60 2087 83 1121 7 1163 80 1028 75 951 46 898 39 1095 11 729 47 699
2874 -0.50088304543426532 0.20681142503092773 2.7673900554285447 208 196 112 0.69859458277428244 54 1152 34 1496 35 1543 95 1689 2 1523 74 1808 12 1440 59 1575 37 1582 63 1764 98 1005 83 1120
2875 -0.65512154940449641 1.0258526694676795 2.5507023347919313 123 124 72 0.28593565510873886 49 1557 95 1508 35 1692 2 1380 74 1593 55 1656 83 1202 51 744
2876 -0.69047755685806711 1.0433869962934814 2.5540049290179168 136 129 77 0.1579317304985754 74 1601 34 1692 35 1695 16 1449 49 1569 77 1831 12 1227 55 1669 82 1806 43 1669
2877 -0.17836406467319799 1.4897432720866395 2.6199456158784944 78 135 63 0.26059398977466802 95 1885 74 1980 34 2062 35 1812 62 1507 95 1621 54 1294 77 2149 83 1339 7 1506 100 1975 75 1240 88 838
2878 -0.76920025293010219 0.86190629976248512 2.5711261131143837 81 131 64 0.20393412119896359 2 1606 74 1888 35 1984 95 1796 34 1973 33 1488 41 1284
2879 -0.35377189145096494 -0.062010970532589568 1.7818345300099421 100 95 96 1.2438587740850802 35 848 16 1192 95 1269 2 1128 54 727 12 1073 98 632 8 994 31 885
2880 0.33354577315014811 0.65353984652541497 1.5978725525910158 222 224 237 1.8755348550364523 74 950 35 958
2882 -0.079559836211943499 0.027038876644310705 1.5650426695636157 255 249 224 0.2521422822755075 49 109 77 30 63 106 43 61
2883 0.19593013396810982 0.34460980096662241 1.5032804388824399 154 156 168 1.5245113401810295 49 11 77 34
2884 0.4177944440467371 0.30442313857149128 1.8728900416352838 223 223 236 2.2901643940226197 35 121 77 40
2887 0.14035295501407474 0.23021136471451278 1.7066474811636339 50 83 46 0.085324548033260922 95 105 77 62 59 57 37 63
2888 0.27723278465466533 0.31182276538549925 1.7648635742338161 142 147 109 0.2528769556004779 74 131 77 65 100 86 55 27 82 60 85 76
2889 0.18294037659653728 0.26026120636802258 1.7331054729235156 63 99 51 0.53676241918981638 34 87 77 68 63 41
2890 0.20439583612706308 0.28195810814153238 1.7401729850011782 200 201 145 0.3136792546996599 16 110 77 71 83 86
2891 0.24627307661150419 0.33447288215327275 1.7869201355570234 208 200 147 0.2248116864361602 34 118 77 85
2892 0.28018268745469627 0.40053045190440784 1.8707852455378351 80 130 73 0.010260735480410092 16 173 77 115
2893 -0.2999358476602581 -0.01649314860572958 1.8103400670061398 150 142 99 0.22171878941724357 49 242 77 125 82 152 43 182 61 132 76 108 65 91 52 111 19 88 33 183 41 108
2894 -0.10621080511342042 0.16608166326939522 1.7884200291852377 61 116 61 0.10667204363283596 74 65 77 126 76 76
2895 -0.34258162766092848 -0.027560421366592376 1.8615331963527126 127 130 88 0.17265107346900471 95 40 77 142 63 910 55 959 49 958
2896 0.0051565085543985607 0.30232974809540464 1.8869575930422628 70 134 73 0.16694731142096042 34 139 77 163 59 162 85 142 64 117
2897 0.3802969268328184 0.52272880635358632 2.1133982845227233 211 218 235 0.099638716509979783 34 230 77 171 100 225
2898 -0.11466881742895781 0.25753555531103256 1.9583929665957336 87 138 81 0.026729831384006773 34 142 77 194
2899 -0.019280612992143675 -0.41204378297817801 3.352960274645727 68 135 73 0.77501977384359044 74 116 77 208
2900 0.28065876249684429 -0.20684453488359592 3.5898246474652349 72 144 82 1.6624633829226214 74 918 77 227
2901 0.24407370281709723 0.56279866337579476 2.480240121201057 72 79 69 1.1042760171350097 95 318 77 256 12 389 61 251 65 238
2902 -0.09815942020956292 0.36873056417203154 2.4990638894518735 171 172 187 0.80336168473807812 34 261 77 283 85 333
2904 -0.042166227370069739 0.47936138541211659 2.7381563469651806 201 192 111 0.22759295796643264 35 344 77 336 55 245 95 309 83 285 32 345 23 211 87 164 68 183 28 207
2906 -0.65525113974560578 0.22729221751574782 2.1709745784922254 78 130 66 0.17050239354053595 16 122 77 340 82 354
2907 0.21312107812183084 0.9902105952718333 2.1522722447111367 79 142 71 0.3200340435454308 54 1022 77 343 85 343 8 130
2909 -0.52528976611475542 0.3223917444935756 2.7216856651465795 79 116 52 0.21990661007023607 2 126 77 376 55 503
2910 -0.73172769778445412 0.38511956507558387 2.163962916762002 224 223 154 0.19035462245444879 95 239 77 379 8 439 63 545
2911 0.2458917799801536 0.60515217314057212 4.0111975251108341 77 115 66 1.9703102238171271 49 398 77 404
2912 -0.076075648057813569 0.84639153919187848 2.6406957776838231 77 115 66 0.15755790699163738 2 448 77 405 8 244
2913 -0.24914087363710349 0.76589818004306032 2.6138392402073687 72 106 55 0.13428251956840834 62 370 77 420 8 296 50 203 49 365 36 155
2914 -0.40772385547490636 0.69561116851628424 2.6065215926174474 67 115 54 0.17294830069120859 74 379 77 435 55 431 49 451 43 445 31 305 83 253 12 264 44 240 78 175 36 194 70 154
2916 -0.40739634552160092 0.72596735398396428 2.6006553484888881 171 155 92 0.23398505729828084 35 409 62 886 77 442 54 781 63 419 31 739 50 578
2918 -0.86986538279893999 0.52027489625019296 2.1637688169666367 248 223 179 0.41877055280215086 35 282 49 1215 77 460 55 653
2919 -0.56793952600939079 0.65824608615491753 2.6094399767905476 186 169 99 0.18390432054129296 95 390 77 470 55 547 78 127 51 128
2920 -0.20553861453896335 1.0073411417599736 2.5914183047495776 62 106 54 0.078057073417676023 95 550 77 480 82 474
2921 -0.38424172344810303 0.86599789015581108 2.5755815081984332 64 106 56 0.4621761482625576 95 477 77 481 82 495 98 213 8 224
2922 -0.16440364976767735 1.0741113761431327 2.5942903829934654 219 204 126 0.068860416675154065 35 590 77 500 8 131 31 231
2924 -0.092664215550006715 1.2159172590757985 2.611387973334228 251 240 144 0.30189363454339413 35 1317 77 520 37 1196 100 547 85 492
2925 -0.42992274448660739 0.94998735210067442 2.5623527278498099 69 108 57 0.15906549616363941 2 456 77 521 31 183
2926 -0.48110749205592557 0.91993189746337334 2.5609392951281995 67 110 58 0.07462619465826642 74 503 77 530 31 179
2927 -0.24946216668160948 1.1241115968929594 2.5749554573118538 88 125 70 0.097663133144484146 16 563 95 632 77 534 12 498 39 303 30 82
2928 -0.48446820703985655 0.94020246624917048 2.5584671726575059 65 105 55 0.11753358467101871 54 249 62 410 77 539 55 492 43 493 98 187
2929 -0.58991992899013757 0.92425073198827756 2.5594657504555545 62 107 55 0.14378518319140887 35 502 74 499 77 574 43 555
2930 -0.21736626935121586 1.280567408077989 2.5832504830915854 71 114 60 0.051987546298980822 74 681 77 584
2932 -0.22719974402425561 1.3523457794156306 2.5841467586645788 67 112 58 0.10011515262180787 34 702 77 617
2933 -0.46140864281369104 1.1898457661322708 2.5538999655010368 72 117 62 0.13653095887595337 95 653 77 625 82 609 55 494
2934 -0.46134321798105254 1.1900453643256861 2.5547681629921053 72 117 62 0.15337604182531356 34 641 77 626 55 495 43 499 76 488 52 341 78 123 31 85
2935 -0.5011767401528131 1.1685005136443867 2.5545561721962411 74 120 62 0.17107968305763688 34 636 74 638 77 631 63 521
2936 -0.39441969480139855 1.2575307073974553 2.5623343010247859 71 115 61 0.11676781823259791 74 667 77 632 12 504 82 603
2937 -0.24441097076315341 1.3950694045904384 2.5907059482014283 69 118 58 0.17047687049506463 35 749 77 640 100 622
2938 -0.48364674265037183 1.2025299539635776 2.5547303308855449 67 113 58 0.11529015350906818 2 559 77 642 63 514 82 625
2939 -0.83954646306112757 0.9433650409057095 2.5710378308834643 227 210 127 0.041022573246721913 49 640 77 665
2940 -0.36019664660984035 1.3554251394468178 2.5778642597164545 73 116 59 0.15751009170100497 74 705 77 666 37 628
2942 -1.0516106928149731 0.75584954937156823 2.6688607195269247 76 114 58 0.17485895643543661 16 370 77 670 63 688 82 734 61 726 76 677 65 1081
2943 -0.34157675203021071 1.3846233936614574 2.5793814340761823 67 114 57 0.10739933718989365 74 714 77 673 85 590
2945 -0.78366451653587788 1.082081413990079 2.5688903019744469 79 127 65 0.13276694508672648 95 1168 77 695
2946 -0.61296840211798842 1.2534734999426427 2.5623275586290934 206 206 132 0.012968093040020622 35 683 77 702
2947 -0.051269270491441463 0.86896370425948621 7.1928918050275907 206 206 132 2.8664080912227323 95 545 77 703
2948 -0.66265497032277476 1.230029638395544 2.5673606132159144 71 121 61 0.14968716157689546 34 676 77 716
2949 -0.20748711503557135 1.407141862768891 3.7947703630239218 80 144 65 2.0136061646056986 49 514 77 718
2950 -0.48213303254920375 1.4128932714442168 2.5902193958802062 80 141 66 0.24263392464605615 74 723 77 732 12 558 85 644 64 569 7 499
2951 -0.89520494677103091 1.1174700002112277 2.5861867524257338 113 173 83 0.11194059720200135 35 624 77 745 64 475
2952 -0.42946811927455347 0.35059268495807189 9.8196747549466483 249 228 144 1.8974250933479277 2 312 77 751
2953 -0.44394515504819076 1.5048337162149104 2.6255857561568807 87 150 70 0.21033178041406872 74 756 77 755 100 709 80 441
2954 -0.41620899074793977 1.5412046075737584 2.6321427160333695 85 138 68 0.50260497611296129 74 767 77 759 82 721 35 1393
2955 -0.4643982917456807 1.50597859416878 2.6300194324083601 95 151 73 0.1064289634774875 35 789 77 761 37 712 85 679 83 549
2956 -0.88454674895654462 1.1878307894677802 2.5960684600234925 94 167 79 0.19825909486224086 34 672 77 776 37 661 59 703 61 1383 65 535 79 573
2957 0.074051231003316731 0.083492662320228075 1.5140282414925137 99 69 42 0.54279044485413819 74 1340 77 827 37 0
2959 0.22185127454905357 0.32620188315337989 1.7920004374146974 68 112 55 0.010568309676775543 74 874 77 897
2961 0.34722634471106101 0.46551751550601961 1.9970278120618601 149 150 162 1.1364838374198691 62 347 77 924 54 610 82 129 98 526
2964 0.047295437842182812 0.38787429100634191 2.0295831702603984 75 147 82 0.059061992765987947 34 922 77 967 59 935 55 862
2966 0.15536797637584501 0.51308090462974798 2.2568047892687253 137 162 110 0.19945599240683357 34 977 77 992 82 1550 61 1544
2967 0.27063349403756642 0.76138272997394485 2.181621680805256 250 228 134 0.14375951875375523 34 1036 77 1015 59 321 63 799 49 811 31 841
2969 -0.06781632460586369 0.43962715953365672 2.6081133166671751 62 51 31 0.42132491225969132 35 314 77 1041 59 1035 37 334 100 1034
2970 0.13505278957763348 0.62757586765459328 2.7417312329516785 92 132 67 0.40046388398957461 95 1010 77 1068 98 854 8 859
2971 -0.46118390914380814 0.21444985725982299 2.770674095866414 60 93 42 0.18376782541024203 35 275 77 1096 82 1141
2972 -0.7383682509678321 0.27622358064658997 2.1580683636957971 82 131 59 0.78201582947302983 54 36 77 1105 8 1261
2974 -0.22118588224422275 0.70115092902967935 2.6282197469490165 66 107 55 0.12902157222038804 16 934 77 1139
2975 -0.79694747908770203 0.44166118272499361 2.1633562437031277 167 173 106 0.29138310444679832 34 989 77 1156 12 693
2976 -0.4819308018216471 0.60057172164140338 2.6286441112958547 185 169 99 0.13424936207842789 34 1077 77 1177
2977 -0.49805630286424429 0.59976288619120399 2.628322518843929 65 114 52 0.17008019175705297 62 830 77 1180 63 1065 8 840 31 754
2978 -0.39576854889412494 0.76064598208568202 2.5935815621454901 50 104 47 0.09353818341463091 34 1103 49 1489 77 1202 12 853
2979 -0.39629908292698846 0.76040146078446902 2.5928177185255379 50 104 47 0.27772166993693931 34 1102 77 1203 12 852 82 1196 8 1151 62 1341 31 1063 50 811 44 890
2980 0.06070947993825996 1.1397759241920093 2.6467255603081128 155 150 101 0.29691158361155862 62 1471 77 1205 61 412
2981 0.063393416795191851 1.1681988972689556 2.6607107660931901 44 78 35 0.63291809797429355 54 975 62 1081 77 1216 31 1060
2982 -0.54287883964174011 0.67687811295500599 2.6068584550736333 70 113 53 0.34870555670063458 16 929 35 392 77 1218 59 448 82 506 43 1173 76 477
2983 -0.41592735952863374 0.97599762846709881 2.5610612377748607 64 108 58 0.19883399545695188 49 1061 74 1153 77 1251 98 695 31 682 78 520 30 454
2984 -0.18489982999911597 1.1853117490074594 2.58675110179164 68 118 62 0.051153412459410574 34 1240 77 1254 37 1195
2985 -0.94840621434088923 0.61234380249874354 2.4931867522880991 249 240 243 0.54476862904555223 16 900 77 1270 85 1088 26 995 37 453 20 1408 79 1060 27 314 18 899 93 391
2986 -0.67143061664045756 1.0830757097381052 1.7747838929947812 66 112 56 1.7101240909349003 49 1038 77 1279
2987 -0.44451696042710248 1.0801201735278916 2.5538091187779681 63 103 57 0.0012150028300605023 74 1196 77 1281
2988 -0.68650692377866818 0.8804683273876599 2.5601350710030042 240 221 132 0.083814063172875111 95 1101 77 1283
2989 -0.62260638327526929 1.0192037267885541 2.5498966689246556 252 232 143 0.023870048283662043 34 1204 77 1319
2991 -0.47757355468229101 1.1910194357662682 2.5562578630622053 254 244 156 0.1075698357875573 49 1078 77 1325
2992 -1.0332739404479721 0.72297509399877946 2.5967873944443984 71 66 41 0.83215238877923225 35 1152 74 368 77 1326 12 145 59 1180 83 151
2993 -0.63133460127835517 1.0797935831204579 2.5451247452171417 237 226 140 0.079962472382469577 95 1161 77 1328 63 576
2994 -0.24859248536306561 1.4054855386043206 2.5909082528947986 66 111 56 0.036459777312521771 35 1362 77 1332
2995 -0.80333814706487716 1.0007713465524937 2.5649898451631583 64 111 58 0.18806641284743519 49 1211 77 1349
2996 -0.80333814706487716 1.0007713465524937 2.5649898451631583 64 111 58 0.18806641284743519 49 1212 77 1350
2997 -0.70491336322321141 1.1954548162691301 2.5625134363434863 73 122 63 0.12051818982796608 95 1194 77 1378
2998 -0.70512447946750612 1.1951166986053334 2.5632590068457142 73 122 63 0.18012937437147916 35 1313 95 1193 77 1379 37 1268 62 1017 82 1338
3001 -0.55049692146634754 1.4741748788846443 2.6264086449529063 98 157 77 0.24593645982746781 34 1345 77 1414 100 1723 82 1842 61 1811 64 1109
3002 -1.153233629371107 0.97873343468401386 2.6443549685315069 87 155 70 0.26464333574587012 34 595 77 1419 59 657 37 1274 100 1201 64 462
3005 0.21976747726890319 0.23104020523261365 1.6082417105483355 204 207 219 0.27692895609513651 35 871 77 1457 59 1404 37 1402 100 1358 63 20 82 1435 85 811 64 1191 60 799 61 1463 20 767 7 647 80 569 75 521 46 22 39 499 69 370
3006 0.24287355449261608 0.26204960730028187 1.7172789530984205 71 78 52 0.98744084507573693 74 856 77 1462 59 1895 37 1884 100 2036 82 2201 85 2256 43 1783 61 2392 64 1784 60 2159 7 1345 80 1181 75 1101
3007 0.20865567224324624 0.2557440669856294 1.7136217440374868 154 158 119 0.28411279561117092 74 1382 77 1464 59 1421 37 1413 100 1784 82 1445 82 1929 85 1371 43 1784 61 1911 76 1727 64 1201 60 1310
3008 -0.2191455469621556 -0.011908570007322287 1.6868801563155149 198 198 209 1.6177771038578992 34 1380 59 1403 82 1467 43 862 76 813 49 181 60 1315 79 1293 26 1298 20 1236 53 706 55 163 93 1189 18 1127 63 173
3009 0.029408832484864093 0.19398495814052083 1.7224778276314796 73 124 68 0.3396855180352828 16 1217 77 1474
3010 -0.25276190307827351 -0.0095129462445384099 1.7753530147131256 48 98 53 0.14335864977744189 34 802 77 1482 59 861 82 1492 61 1503 76 834 60 836 52 662 19 607 43 1413
3011 -0.21881552233289267 0.083673771598465493 1.8073260780513614 65 120 60 0.2091538635225425 49 1379 77 1498 55 1411 82 1499
3012 0.26738075595639338 -0.28649409818250893 3.457293375028514 70 140 77 0.038312298237707307 74 1409 77 1528
3014 0.31399142294625326 -0.18319054716035385 3.6125521236494698 91 145 86 1.6390097014704019 74 1428 77 1540
3015 0.23941064287299932 0.54699149756653054 2.4939842927981206 119 164 110 1.4872569716402575 16 280 77 1562 12 378 74 328
3016 -0.58283087574068337 0.13312366387164407 2.2085458570747485 83 125 79 0.41060689820233109 2 1145 77 1577 63 1474 31 824
3017 0.21656273000530749 0.67098583538159973 2.7688375042674389 170 165 104 0.4413061952350722 49 1377 95 1413 77 1606 63 1670 55 1409
3018 0.076946673199283666 0.6800683807336394 2.7129545403512187 58 120 61 0.33853886793705013 95 1752 77 1624 55 1435 98 1392 31 1367
3020 -0.80164115191563023 0.41007901990277223 2.1573065005948631 68 128 65 0.33873331270613122 49 1590 77 1679 82 1676
3021 -0.22141979093698261 0.71820444910188053 2.6264151776693754 57 104 52 0.35897424920122739 34 1584 77 1680 55 1509
3022 -0.0036174618443792685 0.92314351173139719 2.6487895078396826 108 133 78 0.29213056517755803 34 1966 77 1684 59 1643 37 1642 82 1661 32 579 5 682
3023 -0.12298001829430291 0.82928570159017856 2.6361913222456854 142 136 87 0.229294860250563 62 1653 77 1685 59 1631 37 1629
3025 -0.7448219652925876 0.52168853087267764 2.6441750043981753 68 119 54 0.10593708599293433 2 1226 77 1722 12 1134
3026 -0.51383677436713338 0.75767447828061452 2.5886040124772767 186 169 102 0.0054740733003246465 49 1526 77 1733
3027 0.0096447854462316397 1.2224244603129695 2.6410588612225894 69 75 33 0.7452473554315745 2 1461 77 1739 8 1339
3031 -0.54197188935124663 0.9127292304130431 2.5599776764297699 69 107 55 0.1654099176217716 34 1655 49 1528 77 1765 63 1523 33 1214 50 767
3032 -0.27965759581427152 1.1561659875581345 2.5691941925105533 203 197 120 0.2718501518602085 16 1485 77 1769 12 1319 54 1257 59 1709 100 1614 63 1458 55 1541 39 939 30 669 51 793
3033 -0.64263528992533958 0.86183136557257112 2.5674504249887979 71 111 57 0.0096116006817961869 74 1560 77 1774
3034 -0.20987965490531432 1.2320380522822625 2.58490020324771 73 118 63 0.21716885501552827 62 1470 77 1778 63 1436
3035 -0.42808748878242764 1.0590050871077115 2.5550550062687174 58 102 56 0.070529330498202036 62 1422 77 1780 55 1583 83 1239
3036 0.028918462802680251 1.1531098784938192 3.819989096293781 68 113 60 0.93071145811166622 49 1486 77 1785
3039 0.012728417053463614 1.4685726073695582 2.6785190136326102 164 219 127 0.74933053776365377 2 1718 54 1341 77 1794 63 1393 8 1003
3040 -1.0002957450865608 0.65110968666203539 2.5329392442222236 235 230 236 0.42121815101697951 62 788 77 1795 37 1654 63 1600 85 1623 98 20 8 332 31 641
3041 -0.59846744456747258 1.0168170091107769 2.5505859450334198 61 108 56 0.081458587635594631 34 1679 77 1803
3043 -0.66118050596547961 1.0056002014110597 2.5559539529948658 223 215 131 0.045647218044856143 49 1562 77 1817 82 1789
3044 -0.23264047326832574 0.97182090496818729 4.4584981801562948 229 215 136 2.0943213396417102 74 1666 77 1826
3045 -0.037788344375617434 1.3725855201883284 3.7763249299422554 68 118 56 1.6335494442786405 49 1496 77 1837
3046 -0.2670725235594259 1.4243012896591138 2.5918782367450923 68 118 56 0.030408592814165948 35 1797 77 1838
3049 -0.17830301490293404 1.5781031568232704 2.6467290717621417 96 142 65 0.18122568887622234 95 1260 77 1856 82 1788
3050 -0.47689823809695425 1.3578101399321256 2.5769193486880089 69 124 59 0.20107412431505423 34 1766 77 1859 59 1786 100 1679 85 1707 7 940
3051 -0.84826911461521104 1.0733239424429772 2.5751309522722301 75 128 64 0.23479340122553846 35 1708 77 1867 100 1627 64 1398
3052 -0.32647735190857247 1.1521533723287609 4.5097381669783578 134 163 91 3.3309082546211424 74 1265 77 1870
3053 -0.47397186527429547 1.4033048012394882 2.5870834541917627 240 235 155 0.23373134702200807 74 1695 77 1871 59 1803 100 1699 64 1459
3054 -0.69091085341397085 1.224122879202477 2.563934492485048 176 189 111 0.1958261111639546 34 1743 77 1872
3056 -1.0340317636300276 0.97432799909672874 2.6050533420588988 220 209 125 0.15503428868031791 34 1688 77 1887 59 1741 37 1741 55 1738 82 2162 43 2028 33 1333 52 1333 41 1100 49 1647
3057 -0.61842006811001671 1.43673163950562 2.6138730181210406 198 204 133 0.43186421524295604 34 1790 77 1908 100 1717 82 1849 37 1825 64 1476 60 1172 7 1268 75 1027
3058 -0.70629409014358002 1.3851631867739678 2.6069941486875665 95 167 81 0.19689675316599925 35 1788 77 1910
3059 -0.78452198923140382 1.3227292766074787 2.5918040358288423 236 228 146 0.058585570724407704 95 1588 77 1912
3060 -0.74533947447328186 1.3646950056025442 2.6060346591153607 95 166 80 0.77346239898659952 74 1261 77 1913 12 934 63 1587 95 1599 33 877 26 1856
3061 -0.64279877490915938 1.4503374737689174 2.6254268767897186 235 222 136 0.33355195880330701 35 1807 77 1917 61 1826 43 1682 76 1206
3062 -1.3600410837685042 1.0202377546469545 3.4052308045425708 203 185 162 0.52334259360821045 77 1928 59 1850 37 1381
3063 0.18363851208520482 0.2011431969994108 1.5671930988921603 107 93 52 0.88262846511116821 34 1817 77 1931 59 1883 82 1431 43 799 33 1051
3064 0.28758057873479076 0.31317614434093338 1.7555430538158256 60 80 52 0.55603008132490106 34 1842 77 1940 37 1889 100 2039 82 1930
3065 0.35972885109989677 0.36045650313668748 1.8015999902006803 34 63 30 0.66736483609065933 34 1439 77 1942 74 1403 59 2179 37 2342 100 2267 63 724 82 2475 55 1312 43 2206 64 2053 7 1572 80 1356 75 1302 46 834 69 861
3066 -0.12441159988873608 0.034261036370264022 1.7054440617658202 50 95 52 0.86932097427811028 34 2085 77 1943 43 1396 49 848 52 64 19 51 96 20 22 16
3067 0.12993888643147158 0.2550773074147128 1.7398419382254611 71 125 63 0.14414734216194164 34 1833 77 1947
3069 -0.017976265898012673 0.50066963549762 2.733633211872986 64 113 58 0.37205410097040997 35 1938 77 2030 59 1991 82 2031 83 1471
3070 0.17834438598496763 1.028861271282586 2.1681869394958193 174 186 115 0.71175682562956955 16 1731 77 2040 12 1585 98 1408 31 1319 30 467 51 261
3071 0.20050383712437142 0.87835716821025389 2.7203112090603585 53 92 39 0.76105510682943478 49 1711 77 2048 63 1906 55 1810 82 2034 43 1860 61 1627 76 1478 33 1409 44 1184 9 781
3072 -0.46035273593436232 0.42879482525690477 2.6804728270890354 69 127 55 0.1538884258703925 74 1830 77 2054 12 1472 83 1441
3073 -0.041324191886298489 1.128434188411704 2.6219021898807657 185 174 99 0.43446763092259694 35 2019 77 2091 64 1403
3074 -0.33264012915947661 0.96197588775813603 2.5711224115399047 186 180 111 0.55077248095524978 35 1997 77 2098 12 1541 2 1637 37 1665 55 1875 82 2079 78 990 51 1107 74 2096 36 877
3077 -0.046886410323134911 1.3117511581706602 2.6499835590561274 60 76 41 0.24458886967564647 49 1734 77 2114 63 1718 55 1479 82 2085
3079 -0.46505618640522045 1.1005677892533137 2.5481731493953479 60 105 57 0.050195511194797447 74 1922 77 2128
3080 -0.34722703570786601 1.2451203376539346 2.567369461618827 65 112 58 0.20170941066904327 35 2039 77 2134 37 2083 100 1942 44 774
3081 -0.78091367903997178 0.97877691335876849 2.5640155237099993 69 111 58 0.14424541640454042 49 1843 77 2147 55 1940 43 1996 33 1263
3082 -0.57487477869413128 1.2940603488065849 2.5639205916253545 70 120 60 0.10647801238542241 74 1947 77 2163
3083 -1.0694856660639798 0.89050084385199824 2.6199326690661775 185 188 104 0.53294728690336413 34 1991 49 2040 77 2165 59 2087 37 2081 63 2034 55 2139 82 2341 85 1679 43 2195 61 2361 76 2126 60 1650 33 1681 65 1693 52 1700 19 1557
3084 -0.9166705218783564 1.035143739660827 2.5801690394709622 118 150 82 0.17147582506287162 95 1820 77 2167 76 1936
3085 -0.3081750658030894 1.552901122628674 2.6433502206225055 185 186 104 0.56356839272570081 34 2071 77 2171 37 2132 59 1835 100 2166 61 1771
3086 -1.0741233629338951 1.0885503502541138 2.6329532629679013 193 200 109 0.84775148905360131 35 2020 77 2187 59 2290 37 2298 100 2131 82 2355 85 2215 43 2197 61 2374 76 2247 64 1876 60 2133 79 1868 53 1823 93 1908 18 1753 52 1701 19 1400
3087 -1.09617158315515 1.0980801723803297 2.6425598554752563 99 145 88 1.2534577860906733 49 1657 77 2191 43 2306
3088 -0.60150936840808011 1.5167350243781628 2.6303440208508082 132 167 133 2.0438715938677787 34 1804 77 2192 83 1308
3089 -1.0561023511982108 1.2108194177625589 2.881357377456284 0 0 0 0.47936613215827306 34 2048 77 2195
3090 -0.86704992525029423 1.3974395869701783 2.8207970950237713 132 98 59 0.21169160897975475 34 1338 77 2197
3092 -0.1861333115796413 0.014154930754349444 1.6171888596818189 197 197 206 1.3999184674310534 34 2081 77 2210 12 1626 82 2205 61 2196
3093 -0.21543337783016894 0.0091367563676107068 1.6302323060984356 195 195 205 1.5499404040508669 74 1992 77 2211 82 2208 61 2199
3094 -0.05606971724846313 0.34864222902128872 2.1046485003235138 72 145 80 0.16731853601296492 34 1868 77 2243
3095 0.017922788688960332 1.0139990221517541 2.6382164765359497 145 148 93 0.47739430190913063 34 2182 49 1723 74 2213 77 2284 43 1870 31 1465
3098 -0.055322773471803872 1.3898460896596561 2.6555919219791373 179 181 122 0.67209593180785998 2 1858 77 2325 59 2284 100 2142 43 1536 98 1532 64 1893 83 1683 7 1677 80 1444 75 1374 46 1315 39 1322 78 1226 88 1156 69 943 11 1066 47 981
3099 -0.86190078716095375 0.75799843273618095 2.6039086008305148 217 203 121 0.65179281303585568 54 1597 77 2327 37 2051 63 2015
3100 -0.7164461934503249 0.93908609128356479 2.5653637451842495 205 198 118 0.17358497408649839 16 1716 49 2009 95 1804 77 2337 43 2158
3103 -0.38953359810010113 1.4213589556921662 2.5959537431828323 75 136 62 0.17751545629347257 74 2151 77 2356 82 2314
3104 -0.5936199550136172 1.3039715103174121 2.5700320754273838 68 124 60 0.13408866379760087 35 2212 77 2357
3105 -0.74997834066241553 1.2138466030983444 2.5718370566587803 202 206 125 0.28451783218913734 34 2213 77 2362 61 2340
3106 -0.70932717286685854 1.406895729513137 2.6180387012546658 85 160 77 0.61223725339566137 35 2055 77 2383 59 2138 37 2318 100 2161 82 2344 85 2228 61 2347 76 2104 43 2172 64 1901 60 2126 83 1273 74 1964 79 1846 26 2020 20 1786 7 1485 65 1668 53 1406 93 1389 18 1564 80 1297 75 1214
3107 -1.3518648635216099 1.0549193412811269 3.4147964908620612 210 206 212 0.75217400488636665 35 2042 77 2390 37 1858 55 1756 85 1803
3110 0.058293735266608283 0.6502521006226849 2.7236276339799281 138 145 88 0.57752158207206683 49 2169 74 2271 77 2421 55 2253 82 2403 43 2239
3111 0.10029467506002622 0.87625282910673885 2.6822316289103814 174 168 107 0.57033139281476386 49 2081 77 2425 63 2056 55 2161 82 2404 43 2236 61 2258 76 2037 44 1281
3113 -0.23214714741613832 1.4221734362585963 2.6011781492889292 239 228 148 0.012637370477782784 35 2373 77 2460
3114 -1.005223802777554 0.76747190978455659 2.6443781471581382 64 97 43 0.57121601641984499 16 1976 95 2102 77 2461 63 2115 83 1435
3116 -0.53786295611544455 1.3186638447424495 2.5712791625768148 229 222 144 0.33379106502705413 2 1844 34 2221 77 2471 59 2387 63 1997 49 1983 82 2449 43 2148 61 2323 76 2085 7 1656
3117 -0.87635045711550374 1.0980951801491052 2.5832921698759685 217 213 127 0.15037964295642259 49 2139 77 2474
3118 -0.58162765741384126 1.3730849589153524 2.5882464271721433 241 231 147 0.61604437487290986 35 2314 77 2476 61 2468 64 2021
3119 -0.068888078549176057 0.047608539688510629 1.5828168286239459 109 95 84 0.61580350019373775 49 2158 77 2489 63 2046 43 2316 33 1703 41 1368
3121 -0.16008782365046892 0.38375845536743658 2.7235252557930756 146 161 83 0.95826006006791487 34 2345 77 2514 55 2261 49 2104
3122 0.11443235032131537 0.95370512104845995 2.6773705705992614 66 127 65 0.93440007493081756 49 2079 77 2519 63 2137 55 2162 82 2407 43 2234 61 2259 8 1671 31 1606 33 1586 41 1223 44 1338 9 1143 94 765
3123 -0.4534833402337376 1.0220938126541845 2.5612879375284039 216 207 131 1.1110894548551575 62 1962 77 2539 59 2429 37 2433 63 2167 85 2300 43 2343
3124 -0.54003894929906715 0.97721359071429392 2.5601693235403751 168 169 98 0.16498032586684352 49 2188 77 2541
3125 -0.25635868511389648 1.3245441447897399 2.5846187983799975 132 150 87 1.048197200889242 35 2370 77 2544 7 1846 31 1528
3127 -0.21338277037172942 1.495733928929877 2.6178620648747297 81 140 64 0.33822955017583667 34 2379 77 2549 59 2442 37 2445 100 2366 82 2500 85 2389
3128 -1.0194046825352359 0.82346233772932298 2.6189264683951352 239 220 124 0.91909098691475277 49 2203 77 2550 82 2513 43 2357 63 2118 61 2581 76 2371 33 1823
3129 -0.50606858211312378 1.4629385239744053 2.6065085239587193 234 234 153 0.32939881541552063 35 2375 77 2554 37 2448 100 2309
3130 -0.18331416134589157 0.17431767785573685 1.8875894742893711 61 124 65 1.2127755663806958 77 2569 82 2525 43 2375 49 2223 61 2552 76 2327 52 1822 19 1597 96 1200 71 1215 13 1233 22 1017 34 2388
3131 -0.81565267528262397 -0.072760804236434329 3.7882980377675155 0 0 0 0.096376577604579933 62 1936 77 2585
3132 -0.64379266163847382 0.81781046743908636 2.5773754965381381 199 191 113 0.01884805764972294 62 1995 77 2589
3133 -0.50686084408798149 1.6069526333691742 2.8884737056363234 0 0 0 0.2309503003499761 34 2419 77 2600 83 1861
3134 0.23749307967670868 0.44402439989613229 2.0234616143424704 130 176 114 0.96009076122730796 35 2488 77 2606 59 2492 37 2500 85 2451 60 2329 79 2184 26 2281 20 2133 27 2021 64 2219
3137 0.12589512955449275 0.30779156954414816 1.8036071215540794 69 132 70 0.66552588745067442 35 2482 77 2649 59 2545 37 2551 100 2428 82 2620 85 2484 64 2207 60 2425
3138 -0.82770499321620061 0.89675371073517629 2.5728985504515043 77 121 57 0.78075273102973575 49 2350 77 2713 63 2327 43 2528 33 1909 52 1973 19 1829 41 1701
3139 -0.93061069645757266 1.066797588629713 2.59527707929943 174 187 110 1.4068767321519309 34 2516 49 2354 77 2730 59 2598 37 2608 55 2458 82 2694 85 2550 43 2536 61 2727 76 2484 33 1939 52 1986 41 1702
3140 -1.0130740484690826 1.0113838697581521 2.6102030020760685 122 168 86 1.0197311999393261 49 2358 77 2731 59 2596 34 2452 37 2607 55 2462 33 1941 41 1738
3141 -0.031898796498136851 0.48814464301842031 2.7363599092817448 36 62 32 0.15807174116232073 2 252 62 260 54 436 77 337 16 261 35 345 12 313 62 261 54 435 63 224 98 358 33 253
3142 0.014776414055017624 0.16191494594119496 1.6986299081930512 66 122 67 0.21372232965008953 16 742 2 751 62 740 49 94 54 419 34 61 77 889 95 84 74 53 35 54 59 44 63 92 43 69 61 62 76 48 98 298
3143 0.11589828567488435 1.0539431451676662 2.1839653738618345 255 250 223 0.25033189075644452 34 1159 35 477 77 1118 16 524 95 561 2 578 62 1079 54 550 74 1173 63 851 55 880 49 141 82 1065 43 184 8 100 31 282 98 440 83 419 33 64 44 463 78 613 51 223 70 63
3144 -1.116458380367414 0.75503643018302879 2.6862875282278846 61 107 46 0.36990522407376125 2 860 62 799 77 1357 16 368 74 404 12 750 59 557 35 1186
3145 -0.39716909951067703 0.98493689732931033 2.5606776166949059 58 96 53 0.14338966498062752 16 1025 54 797 77 1247 49 1054 95 1123 2 987 62 993 8 727 31 684 51 526 50 490
3147 -0.10106327989072587 0.94840157329224717 2.6177440608069618 44 81 40 0.26949711042650087 95 1803 2 1647 74 1910 34 1974 35 1994 77 1701 95 1482 2 1399 62 1426 49 1422 54 1292 12 1304 63 1389 55 1483 82 1677 43 1023 98 1131 8 1088 31 1077 31 1312 19 216 44 826 78 858 30 892 51 1009 50 766 36 707 9 509
3148 -0.25187564123582751 -0.011179820552090656 1.770546910035103 59 116 64 0.93873512768527911 16 703 2 700 62 681 54 769 77 1955 74 1754 34 2086 63 1324 49 1384 55 1414 98 162 41 591 33 1107
3149 -0.077205457043089995 0.90342021317330912 2.6334634638782575 50 97 48 0.48702831346721526 95 1795 2 1639 62 1666 54 1539 77 2071 74 2091 34 2177 35 2175 12 1551 63 1711 55 1835 43 1529 8 1388 31 1322 83 1650 33 1125 41 641 44 1057 9 794 94 477 78 1037 30 900 51 1017 50 950
3151 -0.61741115042869055 0.87332162580261519 2.5670009034414956 67 109 55 0.6768769590997451 49 2240 62 1998 77 2538 2 1962 95 2186 54 1798 16 2067 74 2277 34 2360 12 1850 37 2427 63 2218 55 2327 98 1668 8 1702 31 1596 33 1813 52 1854 19 1661 88 1128
3153 -0.15351774744459507 0.14218762279222946 1.8157001456164688 70 137 72 1.2883021391702212 74 2383 34 2463 35 2474 77 2651 16 2133 95 2271 2 2044 59 2542 37 2548 100 2426 63 2270 49 2314 55 2403 85 2486 76 2444 33 1884 65 2208
3154 0.11303856668401009 -0.062247760669141568 2.8761658077079018 68 138 76 0.28978697650043228 49 954 77 970
3155 -0.14289088694630694 0.01859897592204892 1.6237884017021758 148 122 100 0.24028270800131077 2 13 74 17 12 9
3156 -0.69870440370019571 0.2323923637458751 2.1661058438420588 99 144 68 0.31510914957391761 34 192 12 29 59 284
3158 -0.78115767348483223 0.45215868481478688 2.1757310885973125 254 246 236 0.083218612461988528 35 255 12 84 59 338 37 339
3159 -0.027893011831354401 0.19921860092742419 1.7585364721955143 70 151 81 0.065286806241295792 74 850 12 97
3161 -1.0005647914390661 0.63973368414090026 2.5260162988664407 118 93 69 0.37631761606479214 35 1132 12 124 98 19 31 120 83 716 39 566 46 563 88 53
3162 -0.72231885743902124 0.45498952402231224 2.6685229266242994 74 124 56 0.11389788107247059 62 140 12 136
3163 -0.44390714664354042 0.28702529296408047 2.7375361897330848 55 89 39 0.51164569085493627 2 119 34 281 12 149 94 257
3164 -0.57179206141637395 0.44550754871602971 2.6703495710810619 166 150 84 0.095761726436601233 62 169 12 158 54 155
3166 -0.25363612275331687 0.31253221330451386 2.5842859995560246 113 94 65 0.22433404815821195 74 944 12 174
3167 0.25352273727542823 0.32370445960187622 1.7800349139091423 182 181 126 0.41401384210750741 74 139 12 186
3168 -0.24980008081014951 0.35418243066261523 2.7358198991133249 66 97 44 0.13931708997877762 2 164 62 181 12 200 63 293
3169 -0.6944318465124798 0.76040414846552584 2.583406968237719 108 146 74 0.014318101264099138 16 371 12 207
3170 -0.52933784737114065 0.64323078391327104 2.6103058166884052 79 120 58 0.30196177853316947 16 311 95 380 12 211 61 507 55 1148 76 467
3171 -0.76784385547538203 0.84630458800623198 2.5779580755600051 86 140 67 0.17555799454769122 54 84 12 222
3172 -1.0257302833345547 1.0575130133633355 2.6153517782863802 210 197 117 0.062136308032069008 2 950 12 237
3173 -0.18064619764482168 0.45807746253621318 2.7073223539017972 117 106 65 0.19934390388654732 16 244 95 297 12 248
3174 -0.019349153102291912 0.43042644022685861 2.535338396227754 137 121 113 0.46489306996664742 16 215 95 926 12 261 63 875 55 1436 49 1403
3175 -0.8423476242174438 1.0389216985721312 2.5703842624904527 123 187 92 0.23483536504989444 77 696 12 268 43 681 35 574
3176 -0.8423476242174438 1.0389216985721312 2.5703842624904527 123 187 92 0.23483536504989444 35 573 12 269 43 682 77 697
3178 -0.75792304914668374 1.0061575529577391 2.5652256910577389 240 220 132 0.040088790849902578 35 547 12 282
3179 -0.45264643705462199 0.79505466021902171 2.5787567435397065 184 163 99 0.018728823641641114 95 458 12 289
3180 -0.83948615708140772 1.0953885925450288 2.5737338718109828 242 220 132 0.17189294285053563 16 538 12 301
3181 -0.59037502333419078 0.92407091561101806 2.5545013879772944 79 128 65 0.023472702687868646 34 1181 12 302
3182 -0.77055914754776289 0.47024061513676596 4.436399523493435 83 110 58 1.4008984886506803 62 171 12 312
3183 0.32987385897773086 0.46746539775983498 2.101848961297339 170 184 131 0.016078533049168925 34 206 12 324
3185 -0.14701311687437196 0.64616938684767833 2.6606312295632288 57 104 52 0.17045035753820412 54 381 12 330 98 308 78 303
3186 -0.50570455913843093 1.0154342193603096 2.5523418596006686 116 148 80 0.19923014908550335 34 1197 54 240 12 354 98 673 39 240
3188 -0.14650334697253123 1.0598102399766234 1.5168289657757541 80 118 65 2.3423114584351312 54 393 12 362
3189 -0.42593391552918763 0.99769814573528348 2.5582280149409282 69 111 61 0.17643559549020937 74 553 12 372 63 452 44 123
3190 -0.73312425997582564 1.2315769244780268 2.5753930408193577 120 196 95 0.32599881391628793 35 676 12 380
3191 -0.74933806172465534 1.2492523999606613 2.5675763706159027 124 197 97 0.31014221057095259 95 693 12 384
3192 -0.49094827070276881 1.0668218852093359 2.5525211046669973 89 128 69 0.0030224187531217132 54 255 12 386
3193 -0.32467746899665095 0.94437560675900212 2.5751866274261519 80 112 62 0.17594693653983509 74 531 12 390 8 197
3194 0.33214090799185753 0.59753600439962562 2.2262889447403098 83 70 42 0.16250127508228129 35 1053 12 402 83 302
3195 -0.6625303171658351 1.230789458330547 2.5616157026774804 119 185 92 0.14518933385757968 74 651 12 403 83 366
3196 -0.39436966189351325 1.0416048040952222 2.5574241809264677 218 203 124 0.24258625898207803 16 513 12 409 100 498 98 214 88 181
3197 -0.45907162343335084 1.1112313818251709 2.5511596291167025 75 122 65 6.257559553136656e-05 35 606 12 415
3198 -0.14163522372067452 0.86406940262971355 2.6211398123544125 46 85 43 0.15139374881191389 35 468 12 416 98 323 51 257 31 317 70 149
3199 0.061152405240174547 0.69939138718624949 2.7057348953004472 56 103 55 0.031181028295035385 2 385 12 418
3200 -0.12227560988739683 0.88056861831183586 2.6307541654582152 61 93 50 0.051963611845243715 2 466 12 425
3202 0.021864772796145196 0.80809460382003884 2.6736124958876304 84 112 64 0.20211077195788238 34 438 62 435 12 447 31 394 2 437
3204 0.045831833941892282 0.84117641417277789 2.6787762229218588 81 112 62 0.11538847394745839 54 502 12 476
3205 -0.16543741625079003 1.0230497321997793 2.5982883851210339 207 192 116 0.09901524536571267 16 498 12 482 8 163 31 247 62 517 78 250
3206 -0.11961865048803172 0.98994918274995314 2.6103011327861316 53 85 42 0.14550493347632878 54 424 12 483 98 339 8 182 78 280 51 232
3207 -2.5716752526751199 -1.1332402102146315 19.810708095273359 132 134 81 2.8690154939139694 16 274 12 484
3208 -0.35772029492603091 1.2315769338325573 2.5719520317069171 182 185 109 0.074625951663908702 74 657 12 507
3211 -0.3309048660217489 1.2691428984349866 2.5665782628524418 77 127 65 0.37469319547131863 95 690 12 533 39 318
3212 -0.33417132926198917 1.2835092458631672 2.5667366742499813 238 222 138 0.19427882504783919 62 598 12 541 55 426 8 62
3213 -0.42421750671314784 1.3512035933989792 2.57494845521189 243 227 144 0.28481541000300403 62 613 12 543 83 486
3214 -0.41245745640258336 1.3491138277985784 2.5728200684203331 101 164 82 0.10153864220320472 62 615 12 547
3217 -0.25506607011467236 1.2930760560151908 2.5837202217085777 63 111 60 0.027430440163633725 54 373 12 579
3219 -0.23419850076229065 1.3268379202263301 2.5849468694450297 67 115 58 0.001580087149087225 16 645 12 591
3221 -0.13090357741773934 1.5230445209631804 2.638652518607211 73 129 59 0.15481073888779495 2 681 54 464 12 634 31 78 75 792 46 765 78 210 51 135
3223 0.083867071307529947 0.19106633014698479 1.6908922284334647 181 177 130 0.15792805590371489 35 878 12 711 59 860 63 771 55 67 43 56 60 52
3225 0.14089805916271161 0.22805045165397653 1.7067309299968376 60 119 68 0.30657358270115509 16 754 12 731 8 519
3226 0.1409064230754126 0.2282733553556103 1.7073046598340267 60 119 68 0.24990124557994642 62 781 12 732
3228 -0.42158125368362093 0.23293203458184999 2.7681124656174405 71 98 46 0.30721925410558976 16 792 95 899 12 751 63 1441 16 1262 55 1568
3229 -0.42163586264642072 0.232332294747155 2.76972701729489 71 98 46 0.27515916633430931 16 791 12 752 63 1440 16 1263
3230 -0.44755772753937889 0.26533293959172427 2.7449403514919433 127 133 69 0.19927707546853723 74 942 12 753 63 1447 54 755 62 742
3231 0.27131871409429287 0.27738696203051472 1.6627985194832586 222 228 244 0.60352832701728099 16 1237 12 764 83 79
3232 -1.7245296149250093 -0.29628784936077396 6.6613336665258753 75 123 57 0.14387069068481778 35 1276 12 779
3233 -0.85030854270637823 0.78847250533262181 2.5915435323820768 226 210 121 0.19012540494977259 35 1174 12 788 98 592 83 201 78 430 51 52
3234 -0.91597402232144343 0.88569979911806684 2.587032565193029 109 171 80 0.21305270762340375 74 1121 12 799 83 216
3235 -0.34548256627917795 0.472676077739069 2.6801674695110407 176 156 89 0.065368185830944059 34 1015 95 958 12 807
3236 -1.0297682829209163 0.99292727925619828 2.6056382736870312 197 201 113 0.0092349527343289634 77 1893 12 810
3241 -0.91212958357574703 1.1416414983218686 2.5953722392958603 117 200 96 0.23271279038791937 62 982 12 856 98 585
3243 -0.51085638924727306 0.91796655886649758 2.5607146952257009 86 124 65 0.086791997409599822 49 1095 12 870 63 1095
3244 -0.31231526071767973 0.77961217577103581 2.5984024838493145 82 106 57 0.25696763369832165 62 914 12 874 31 747
3245 -0.83055095603199969 1.1682681182247181 2.5747576705144346 225 214 127 0.11909400798789158 95 1188 12 876
3246 -0.67438576192926813 1.0689194344265125 2.5608405348826633 243 225 136 0.033691105178536282 74 1189 12 878
3248 -0.55857217950136251 1.023499416928231 2.5508714012900526 88 134 69 0.0032408341512571927 49 1107 12 882
3249 -0.66765924699499768 1.1035525486349387 2.5530409417844568 85 148 72 0.12766043932314114 2 999 12 885
3251 -0.44962852006816545 1.0994062407869827 2.5491855905386567 233 219 133 0.25040901893339584 49 1070 12 921 55 1124 43 1149
3252 -0.21541867627509229 1.1728764387498549 1.7502071709530247 208 198 119 0.55143972547246456 35 460 12 929
3253 -0.22260858863576796 1.0370867284132346 2.5858086318549685 56 99 55 0.14231466766236955 16 1042 12 951
3254 -0.6812129325787093 1.3778664872600883 2.5935400230863062 107 189 93 0.010163140786747482 54 735 62 1064 12 953
3255 0.24184644830930743 0.81823445814068729 2.1714258696174307 82 131 59 0.36185793200696159 54 1377 12 955 63 1277 55 1365 44 799
3257 0.31692123036409631 0.79623327751965811 2.1823443189394762 70 124 66 0.17415961788606632 35 365 12 965 78 671 83 926 51 699
3258 0.00071974367740782928 0.94118852311495771 2.6443540683059195 51 104 53 0.321616349869285 62 1024 12 968 30 515
3263 -0.095245582976425713 1.0981775065029358 2.6070141406709113 172 163 90 0.21180232429287688 34 1212 12 987 55 279 31 724 78 596
3264 -0.18540851596331032 1.1860677119890783 2.5850130572810768 62 108 57 0.10091980412120377 16 1096 54 888 12 991 98 775 31 680 83 975
3265 0.1435756957889498 1.0327646177982532 2.1763550329765762 250 241 214 0.27175351945660614 54 996 62 1078 12 992 31 308
3266 -0.22419859421639304 1.3043579115809822 2.587321764189165 61 109 58 0.10058715084444721 95 1207 12 1015
